ply
format ascii 1.0
comment Created by labeled_geometry.py
element vertex 648
property float x
property float y
property float z
property float nx
property float ny
property float nz
property uchar red
property uchar green
property uchar blue
property uchar alpha
property uchar label
end_header
0.326926 -0.132469 0.002025 0.299670 -0.368125 -0.880160 129 105 78 255 4
0.325115 -0.126219 -0.001092 0.324721 -0.320019 -0.890025 128 105 78 255 4
0.323761 -0.119959 -0.003323 0.346226 -0.280398 -0.895268 128 104 78 255 4
0.322637 -0.113696 -0.005109 0.350828 -0.239648 -0.905256 127 103 77 255 4
0.321436 -0.107441 -0.007044 0.365672 -0.193605 -0.910385 127 103 77 255 4
0.320236 -0.101192 -0.008978 0.379687 -0.166755 -0.909962 128 104 78 255 4
0.319417 -0.094927 -0.010174 0.392118 -0.148328 -0.907878 128 103 77 255 4
0.318674 -0.088661 -0.011221 0.401890 -0.139980 -0.904925 129 103 78 255 4
0.317855 -0.082403 -0.012416 0.410042 -0.133785 -0.902201 129 103 77 255 4
0.317112 -0.076143 -0.013464 0.418976 -0.129497 -0.898716 128 102 77 255 4
0.316293 -0.069891 -0.014659 0.424529 -0.128841 -0.896200 127 102 77 255 4
0.315322 -0.063653 -0.016150 0.429156 -0.130588 -0.893740 126 102 77 255 4
0.314352 -0.057419 -0.017640 0.432664 -0.129984 -0.892136 126 102 76 255 4
0.313382 -0.051189 -0.019130 0.436290 -0.122901 -0.891373 126 102 77 255 4
0.312488 -0.044958 -0.020473 0.439888 -0.110145 -0.891272 126 102 77 255 4
0.311746 -0.038717 -0.021520 0.440856 -0.095078 -0.892528 126 103 78 255 4
0.310928 -0.032486 -0.022714 0.439215 -0.075190 -0.895230 128 103 79 255 4
0.310415 -0.026232 -0.023318 0.432176 -0.054347 -0.900150 128 104 79 255 4
0.310053 -0.019964 -0.023626 0.425455 -0.037349 -0.904208 130 105 80 255 4
0.309692 -0.013697 -0.023935 0.421849 -0.024973 -0.906322 131 105 79 255 4
0.309331 -0.007430 -0.024243 0.421277 -0.013206 -0.906836 132 106 80 255 4
0.309045 -0.001157 -0.024404 0.420789 -0.006387 -0.907136 133 106 80 255 4
0.308760 0.005117 -0.024564 0.421123 0.004302 -0.906993 135 107 81 255 4
0.308475 0.011391 -0.024725 0.423597 0.017543 -0.905681 134 106 79 255 4
0.308190 0.017665 -0.024886 0.426437 0.034581 -0.903856 135 106 79 255 4
0.308284 0.023982 -0.024308 0.431228 0.053576 -0.900651 134 105 79 255 4
0.308379 0.030301 -0.023731 0.434601 0.075003 -0.897494 134 105 79 255 4
0.308473 0.036623 -0.023154 0.434138 0.090002 -0.896339 133 104 78 255 4
0.308719 0.042965 -0.022281 0.431511 0.102084 -0.896313 133 104 78 255 4
0.309041 0.049321 -0.021261 0.428742 0.108992 -0.896828 133 104 79 255 4
0.309362 0.055680 -0.020241 0.425072 0.111890 -0.898217 131 103 78 255 4
0.309684 0.062043 -0.019221 0.419760 0.114254 -0.900415 132 103 78 255 4
0.309853 0.068389 -0.018497 0.413179 0.117440 -0.903045 131 103 78 255 4
0.310023 0.074738 -0.017772 0.402981 0.121382 -0.907123 131 103 77 255 4
0.310192 0.081090 -0.017048 0.391733 0.131591 -0.910620 130 103 77 255 4
0.310361 0.087444 -0.016324 0.379752 0.144058 -0.913803 128 102 77 255 4
0.310985 0.093869 -0.014714 0.367142 0.174091 -0.913728 128 103 77 255 4
0.311609 0.100299 -0.013104 0.343988 0.206610 -0.915961 127 103 77 255 4
0.312232 0.106735 -0.011495 0.321259 0.254471 -0.912161 128 104 77 255 4
0.313007 0.113200 -0.009591 0.299576 0.289778 -0.909001 128 103 76 255 4
0.314237 0.119745 -0.006801 0.280084 0.329809 -0.901543 128 103 75 255 4
0.315390 0.126286 -0.004160 0.249021 0.382894 -0.889596 129 104 76 255 4
0.316921 0.132900 -0.000781 0.213983 0.439054 -0.872607 130 104 75 255 4
0.318680 0.139563 0.003041 0.179748 0.484372 -0.856198 130 104 74 255 4
0.320437 0.146238 0.006862 0.159836 0.506532 -0.847277 130 103 73 255 4
0.323028 0.153073 0.012305 0.115735 0.542797 -0.831851 128 101 72 255 4
0.325314 0.159871 0.017158 0.048325 0.576578 -0.815612 127 100 72 255 4
0.327676 0.166699 0.022158 0.000043 0.599429 -0.800428 127 100 72 255 4
0.329886 0.173515 0.026862 -0.026226 0.597565 -0.801392 126 99 72 255 2
0.332094 0.180347 0.031566 -0.072301 0.589600 -0.804453 126 99 72 255 2
0.334984 0.187324 0.037598 -0.040235 0.547761 -0.835667 128 100 73 255 2
0.336434 0.194041 0.040826 -0.047518 0.496327 -0.866834 131 101 74 255 2
0.338414 0.200874 0.045087 -0.042683 0.401840 -0.914715 130 101 74 255 2
0.339409 0.207523 0.047430 -0.058072 0.327698 -0.942996 126 100 73 255 2
0.340253 0.214150 0.049478 0.028013 0.271523 -0.962024 127 103 75 255 2
0.340794 0.220721 0.050936 -0.002287 0.133859 -0.990998 125 100 73 255 2
0.341259 0.227281 0.052246 0.014901 0.022401 -0.999638 126 100 75 255 2
0.341195 0.233734 0.052525 -0.133503 -0.022851 -0.990785 122 99 75 255 2
0.340753 0.240106 0.052066 -0.112284 -0.096076 -0.989021 120 98 74 255 2
0.340386 0.246493 0.051754 -0.089979 -0.148909 -0.984749 122 98 73 255 2
0.340170 0.252914 0.051738 -0.068481 -0.191730 -0.979056 126 100 74 255 2
0.339803 0.259301 0.051426 -0.087253 -0.227004 -0.969977 128 101 75 255 2
0.338832 0.265550 0.049935 -0.054864 -0.259630 -0.964149 128 102 77 255 2
0.337483 0.271706 0.047708 -0.025872 -0.279394 -0.959828 128 102 77 255 2
0.336513 0.277945 0.046217 -0.001004 -0.291337 -0.956620 126 103 78 255 2
0.335542 0.284180 0.044727 0.016550 -0.296697 -0.954828 124 100 76 255 2
0.334421 0.290374 0.042942 0.024865 -0.298033 -0.954232 119 98 76 255 2
0.333224 0.296545 0.041010 0.023049 -0.296188 -0.954851 115 95 73 255 2
0.332103 0.302729 0.039225 0.014399 -0.293555 -0.955834 115 94 73 255 2
0.330756 0.308851 0.036998 0.008580 -0.286335 -0.958091 115 93 71 255 2
0.329258 0.314928 0.034477 -0.009138 -0.285458 -0.958348 121 94 72 255 2
0.327761 0.320997 0.031956 -0.033710 -0.284106 -0.958200 122 92 70 255 2
0.326263 0.327059 0.029435 -0.062969 -0.276560 -0.958931 124 91 69 255 2
0.324917 0.333154 0.027209 -0.047567 -0.247666 -0.967677 122 89 67 255 2
0.323647 0.339261 0.025130 0.132657 -0.196788 -0.971430 119 90 68 255 2
0.322604 0.345424 0.023494 0.150433 -0.211989 -0.965624 114 90 67 255 2
0.321485 0.351562 0.021710 0.169731 -0.257813 -0.951170 117 92 67 255 2
0.320366 0.357694 0.019927 0.145808 -0.328577 -0.933154 127 97 69 255 2
0.319097 0.363779 0.017849 0.016246 -0.335265 -0.941984 124 95 68 255 2
0.317903 0.369880 0.015918 0.008466 -0.356150 -0.934390 129 99 73 255 2
0.316559 0.375931 0.013693 -0.026502 -0.330308 -0.943501 123 99 76 255 2
0.314010 0.381630 0.009112 -0.109107 -0.229982 -0.967059 129 102 78 255 2
0.312968 0.387752 0.007476 -0.115603 -0.128809 -0.984908 133 103 79 255 2
0.312906 0.394159 0.007756 -0.142326 0.091898 -0.985545 133 104 79 255 2
0.313748 0.400835 0.009803 -0.109534 0.292368 -0.950012 127 98 74 255 2
0.316246 0.408017 0.015089 -0.089855 0.471787 -0.877122 122 90 66 255 2
0.319120 0.415330 0.021112 -0.091427 0.573665 -0.813972 118 84 61 255 2
0.321165 0.422408 0.025514 -0.040991 0.607869 -0.792979 116 82 59 255 2
0.525149 -0.456364 0.380714 -0.298699 0.937214 0.180022 81 75 60 255 2
0.356277 -0.431493 0.054103 -0.212510 -0.685170 -0.696693 105 79 58 255 2
0.352162 -0.424722 0.046531 -0.247746 -0.598187 -0.762098 109 81 58 255 2
0.349119 -0.418081 0.041034 -0.304602 -0.536397 -0.787080 117 88 62 255 2
0.346382 -0.411487 0.036130 -0.331081 -0.373567 -0.866506 123 94 66 255 2
0.345482 -0.405081 0.034782 -0.376132 -0.195696 -0.905664 124 96 68 255 2
0.345729 -0.398785 0.035657 -0.368048 -0.014549 -0.929693 126 98 70 255 2
0.346052 -0.392491 0.036679 -0.371384 0.097451 -0.923351 127 99 70 255 2
0.346527 -0.386207 0.037998 -0.294104 0.194635 -0.935746 128 98 71 255 2
0.347156 -0.379931 0.039613 -0.278395 0.227004 -0.933255 130 100 73 255 2
0.347707 -0.373643 0.041080 -0.253530 0.212018 -0.943807 130 101 75 255 2
0.348106 -0.367338 0.042250 -0.221507 0.187391 -0.956984 132 102 75 255 2
0.348428 -0.361024 0.043272 -0.205224 0.167833 -0.964217 132 104 77 255 2
0.348597 -0.354695 0.043997 -0.185586 0.163170 -0.968986 132 105 77 255 2
0.348766 -0.348364 0.044723 -0.149529 0.157455 -0.976140 132 104 78 255 2
0.348935 -0.342029 0.045449 -0.109188 0.164711 -0.980280 133 105 79 255 2
0.349180 -0.335697 0.046322 -0.121523 0.148719 -0.981384 131 105 78 255 2
0.349807 -0.329383 0.047936 -0.127894 0.159469 -0.978883 129 106 79 255 2
0.350357 -0.323059 0.049402 -0.117807 0.176306 -0.977260 128 106 79 255 2
0.350983 -0.316735 0.051015 -0.118120 0.190752 -0.974506 128 106 79 255 2
0.351456 -0.310397 0.052333 -0.100408 0.192523 -0.976142 126 103 77 255 2
0.351929 -0.304055 0.053650 -0.137274 0.212364 -0.967501 125 100 74 255 2
0.352402 -0.297707 0.054967 -0.168411 0.249593 -0.953594 125 101 75 255 2
0.352951 -0.291359 0.056432 -0.157075 0.257942 -0.953307 126 99 73 255 2
0.353576 -0.285008 0.058045 -0.131624 0.257388 -0.957302 129 102 74 255 2
0.354429 -0.278659 0.060102 -0.134596 0.246466 -0.959760 130 101 73 255 2
0.355130 -0.272298 0.061863 -0.140721 0.222124 -0.964810 130 101 73 255 2
0.355525 -0.265923 0.063031 -0.148241 0.173639 -0.973588 129 100 72 255 2
0.355920 -0.259544 0.064199 -0.165874 0.128526 -0.977736 129 100 73 255 2
0.356392 -0.253162 0.065515 -0.192326 0.063302 -0.979287 128 99 72 255 2
0.356253 -0.246764 0.065648 -0.162226 0.031280 -0.986258 128 98 71 255 2
0.356114 -0.240366 0.065780 -0.146599 -0.036028 -0.988540 129 99 71 255 2
0.355519 -0.233961 0.065024 -0.163694 -0.109773 -0.980385 131 99 72 255 2
0.354542 -0.227554 0.063528 -0.177562 -0.198411 -0.963901 132 100 73 255 2
0.353566 -0.221151 0.062032 -0.141860 -0.287185 -0.947312 131 101 74 255 2
0.352590 -0.214753 0.060536 -0.123433 -0.357032 -0.925901 131 102 74 255 2
0.350700 -0.208359 0.057265 -0.131235 -0.451417 -0.882610 128 100 73 255 2
0.348430 -0.201976 0.053255 -0.109837 -0.542511 -0.832837 125 98 72 255 2
0.346389 -0.195603 0.049688 -0.094025 -0.612776 -0.784643 124 98 72 255 2
0.343283 -0.189252 0.044051 -0.056991 -0.645703 -0.761459 123 97 71 255 2
0.339797 -0.182922 0.037674 -0.033850 -0.664197 -0.746791 123 98 72 255 2
0.336997 -0.176601 0.032629 0.018847 -0.654892 -0.755488 123 98 71 255 2
0.334121 -0.170297 0.027437 0.063273 -0.643801 -0.762572 124 98 71 255 4
0.331323 -0.164007 0.022392 0.111159 -0.608243 -0.785929 126 99 72 255 4
0.328068 -0.157744 0.016461 0.147054 -0.577294 -0.803185 124 99 72 255 4
0.325423 -0.151482 0.011714 0.185656 -0.534814 -0.824321 124 99 73 255 4
0.323007 -0.145227 0.007411 0.204753 -0.504128 -0.839006 125 102 75 255 4
0.320591 -0.138986 0.003108 0.233481 -0.451707 -0.861073 126 102 75 255 4
0.318860 -0.132733 0.000136 0.263235 -0.400688 -0.877586 127 103 77 255 4
0.316978 -0.126494 -0.003131 0.287251 -0.351538 -0.891015 128 104 78 255 4
0.315171 -0.120262 -0.006250 0.309306 -0.309059 -0.899340 128 104 77 255 4
0.313897 -0.114015 -0.008334 0.331455 -0.264621 -0.905601 128 104 78 255 4
0.312700 -0.107770 -0.010269 0.349714 -0.227893 -0.908716 128 103 78 255 4
0.311502 -0.101531 -0.012205 0.368868 -0.196751 -0.908419 129 104 78 255 4
0.310305 -0.095297 -0.014140 0.384591 -0.173942 -0.906550 129 104 78 255 4
0.309488 -0.089047 -0.015336 0.399081 -0.153496 -0.903976 129 104 78 255 4
0.308747 -0.082795 -0.016384 0.409106 -0.143843 -0.901078 130 104 78 255 4
0.307930 -0.076551 -0.017580 0.417783 -0.141601 -0.897445 130 103 78 255 4
0.307037 -0.070316 -0.018923 0.424196 -0.140437 -0.894615 129 103 78 255 4
0.306145 -0.064084 -0.020267 0.429589 -0.139433 -0.892195 129 104 78 255 4
0.305177 -0.057861 -0.021758 0.432429 -0.135596 -0.891414 128 103 78 255 4
0.304209 -0.051643 -0.023249 0.433527 -0.126446 -0.892225 127 104 78 255 4
0.303241 -0.045429 -0.024740 0.432745 -0.109923 -0.894790 126 104 78 255 4
0.302349 -0.039213 -0.026083 0.431020 -0.088764 -0.897966 127 105 79 255 4
0.301533 -0.032994 -0.027278 0.427594 -0.068957 -0.901337 128 105 79 255 4
0.301173 -0.026738 -0.027586 0.424065 -0.048317 -0.904342 128 105 79 255 4
0.300888 -0.020475 -0.027746 0.418393 -0.031192 -0.907730 129 105 80 255 4
0.300603 -0.014212 -0.027907 0.413148 -0.019609 -0.910453 132 106 81 255 4
0.300243 -0.007957 -0.028215 0.410970 -0.013149 -0.911554 132 106 80 255 4
0.299958 -0.001694 -0.028375 0.410823 -0.008901 -0.911672 133 107 81 255 4
0.299673 0.004569 -0.028536 0.412620 -0.002255 -0.910901 135 107 81 255 4
0.299237 0.010815 -0.028992 0.416254 0.008273 -0.909211 135 107 80 255 4
0.298952 0.017077 -0.029152 0.418607 0.023972 -0.907851 136 108 81 255 4
0.298743 0.023348 -0.029165 0.424040 0.040407 -0.904742 135 107 80 255 4
0.298837 0.029654 -0.028586 0.428286 0.065605 -0.901259 134 105 79 255 4
0.299007 0.035973 -0.027860 0.429455 0.086155 -0.898969 133 105 79 255 4
0.299403 0.042321 -0.026691 0.428542 0.103760 -0.897544 134 105 79 255 4
0.299724 0.048665 -0.025670 0.426917 0.112173 -0.897306 134 105 79 255 4
0.300120 0.055022 -0.024501 0.424286 0.120690 -0.897450 132 104 78 255 4
0.300365 0.061363 -0.023628 0.420522 0.124324 -0.898724 133 104 78 255 4
0.300534 0.067698 -0.022902 0.415491 0.128428 -0.900485 132 104 78 255 4
0.300778 0.074045 -0.022029 0.407428 0.131251 -0.903757 131 104 78 255 4
0.300947 0.080385 -0.021304 0.393926 0.147511 -0.907228 131 105 78 255 4
0.301494 0.086783 -0.019840 0.374423 0.172952 -0.910986 130 105 79 255 4
0.302116 0.093197 -0.018229 0.355268 0.200980 -0.912903 129 104 78 255 4
0.302662 0.099605 -0.016765 0.329400 0.234843 -0.914519 130 104 78 255 4
0.303283 0.106030 -0.015154 0.306367 0.278720 -0.910195 129 104 77 255 4
0.304585 0.112568 -0.012214 0.279972 0.314721 -0.906954 129 103 76 255 4
0.305811 0.119103 -0.009422 0.249424 0.362540 -0.897971 130 104 76 255 4
0.307036 0.125648 -0.006631 0.219458 0.411079 -0.884789 129 104 75 255 4
0.308714 0.132277 -0.002953 0.188882 0.450191 -0.872727 129 104 74 255 4
0.310392 0.138919 0.000724 0.162816 0.496504 -0.852628 128 102 72 255 4
0.312447 0.145638 0.005139 0.121606 0.546889 -0.828326 127 101 72 255 4
0.315332 0.152518 0.011177 0.078990 0.595629 -0.799366 126 100 71 255 4
0.317688 0.159323 0.016182 0.032764 0.612082 -0.790115 126 100 72 255 4
0.320118 0.166157 0.021334 -0.022400 0.637363 -0.770238 126 100 72 255 4
0.322699 0.173037 0.026780 -0.096348 0.635010 -0.766472 125 99 72 255 4
0.325731 0.180020 0.033112 -0.136348 0.614647 -0.776929 125 98 72 255 2
0.328386 0.186951 0.038705 -0.179660 0.555559 -0.811836 127 98 72 255 2
0.329756 0.193650 0.041789 -0.218915 0.487757 -0.845085 131 100 74 255 2
0.331126 0.200360 0.044872 -0.171275 0.408303 -0.896635 134 102 76 255 2
0.332571 0.207095 0.048103 -0.191428 0.287895 -0.938335 134 104 77 255 2
0.332960 0.213625 0.049267 -0.148904 0.214062 -0.965404 133 107 79 255 2
0.333273 0.220143 0.050284 -0.189261 0.116587 -0.974981 130 106 79 255 2
0.333510 0.226650 0.051153 -0.173544 0.042450 -0.983911 130 106 79 255 2
0.333671 0.233144 0.051875 -0.136670 -0.052224 -0.989239 129 104 77 255 2
0.333154 0.239493 0.051268 -0.108055 -0.113806 -0.987609 128 100 74 255 2
0.332712 0.245858 0.050809 -0.154396 -0.147079 -0.977000 129 99 72 255 2
0.331592 0.252071 0.049022 -0.113339 -0.198404 -0.973545 128 98 71 255 2
0.330623 0.258312 0.047531 -0.084707 -0.244300 -0.965993 130 100 73 255 2
0.329654 0.264550 0.046039 -0.061103 -0.290300 -0.954983 128 101 74 255 2
0.328309 0.270696 0.043810 -0.039486 -0.310693 -0.949690 128 100 74 255 2
0.326813 0.276799 0.041287 -0.021583 -0.319007 -0.947506 128 100 74 255 2
0.325619 0.282967 0.039353 -0.009631 -0.317925 -0.948067 129 99 74 255 2
0.324501 0.289148 0.037567 -0.007906 -0.312171 -0.949993 128 101 75 255 2
0.323382 0.295324 0.035781 -0.012362 -0.304498 -0.952433 128 102 77 255 2
0.322339 0.301513 0.034143 -0.020002 -0.300422 -0.953597 128 103 77 255 2
0.321297 0.307697 0.032505 -0.057337 -0.298052 -0.952826 127 100 74 255 2
0.320028 0.313820 0.030424 -0.079115 -0.295296 -0.952124 128 97 71 255 2
0.318836 0.319955 0.028492 -0.106319 -0.288763 -0.951479 131 97 71 255 2
0.317719 0.326105 0.026706 -0.137873 -0.281288 -0.949667 131 97 71 255 2
0.316677 0.332269 0.025069 -0.173792 -0.272538 -0.946319 131 98 72 255 2
0.315635 0.338429 0.023431 -0.209692 -0.266748 -0.940678 126 98 72 255 2
0.314669 0.344604 0.021941 -0.134862 -0.231681 -0.963398 126 100 73 255 2
0.313478 0.350714 0.020009 -0.156564 -0.248958 -0.955776 127 101 74 255 2
0.312287 0.356818 0.018077 -0.083369 -0.274767 -0.957890 129 101 74 255 2
0.311171 0.362937 0.016293 -0.134393 -0.309256 -0.941435 132 103 77 255 2
0.309830 0.368988 0.014066 -0.144818 -0.326717 -0.933961 131 103 77 255 2
0.308639 0.375075 0.012135 -0.191230 -0.289621 -0.937844 128 103 79 255 2
0.307599 0.381200 0.010498 -0.231515 -0.210107 -0.949872 130 103 79 255 2
0.306710 0.387364 0.009157 -0.274139 -0.097221 -0.956763 131 105 79 255 2
0.305896 0.393546 0.007963 -0.284567 0.042715 -0.957704 131 104 78 255 2
0.306885 0.400262 0.010306 -0.243692 0.294934 -0.923920 126 99 74 255 2
0.308850 0.407281 0.014565 -0.212433 0.447344 -0.868767 123 93 67 255 2
0.311641 0.414565 0.020445 -0.194579 0.578198 -0.792354 118 86 62 255 2
0.313980 0.421730 0.025441 -0.184622 0.609238 -0.771196 114 81 58 255 2
0.482549 0.480557 0.356715 -0.172227 0.984949 -0.014575 87 76 57 255 2
0.517028 -0.456313 0.379990 -0.364518 -0.916147 -0.166736 81 73 57 255 2
0.350281 -0.431615 0.056385 -0.347535 -0.687355 -0.637779 99 73 54 255 2
0.346024 -0.424828 0.048511 -0.393653 -0.599688 -0.696715 100 75 54 255 2
0.342683 -0.418159 0.042417 -0.432960 -0.487946 -0.757928 110 84 60 255 2
0.341174 -0.411687 0.039882 -0.466601 -0.366709 -0.804865 120 91 64 255 2
0.339970 -0.405251 0.037940 -0.460968 -0.176196 -0.869749 123 93 65 255 2
0.339758 -0.398912 0.037925 -0.487769 -0.041079 -0.872006 123 93 66 255 2
0.340232 -0.392634 0.039245 -0.483312 0.066332 -0.872932 124 94 67 255 2
0.340858 -0.386364 0.040862 -0.436152 0.151294 -0.887064 126 95 68 255 2
0.341331 -0.380076 0.042182 -0.382615 0.185524 -0.905089 129 97 70 255 2
0.341805 -0.373783 0.043501 -0.357764 0.178252 -0.916641 129 97 71 255 2
0.341973 -0.367462 0.044228 -0.357532 0.178048 -0.916771 130 98 73 255 2
0.342065 -0.361133 0.044806 -0.307789 0.158585 -0.938145 131 100 75 255 2
0.342233 -0.354806 0.045533 -0.280064 0.142943 -0.949279 131 102 76 255 2
0.342324 -0.348472 0.046111 -0.250302 0.138997 -0.958138 132 103 76 255 2
0.342416 -0.342136 0.046689 -0.278370 0.129127 -0.951754 134 104 78 255 2
0.342812 -0.335815 0.047860 -0.292178 0.156913 -0.943404 136 105 79 255 2
0.343284 -0.329496 0.049179 -0.309854 0.165340 -0.936298 134 105 79 255 2
0.343604 -0.323163 0.050201 -0.326888 0.188786 -0.926015 134 105 79 255 2
0.343999 -0.316830 0.051372 -0.298666 0.203869 -0.932328 132 104 78 255 2
0.344471 -0.310497 0.052690 -0.270626 0.215822 -0.938180 131 104 77 255 2
0.344866 -0.304155 0.053861 -0.246678 0.227614 -0.941988 132 104 77 255 2
0.345337 -0.297813 0.055179 -0.228020 0.242429 -0.942993 130 104 78 255 2
0.345884 -0.291469 0.056645 -0.213699 0.254658 -0.943123 130 103 76 255 2
0.346582 -0.285125 0.058408 -0.204853 0.262488 -0.942940 131 103 76 255 2
0.347357 -0.278778 0.060319 -0.201052 0.256121 -0.945505 132 102 74 255 2
0.348131 -0.272425 0.062229 -0.205828 0.233303 -0.950371 133 102 74 255 2
0.348677 -0.266058 0.063695 -0.210046 0.195292 -0.957988 133 102 74 255 2
0.349147 -0.259685 0.065013 -0.214516 0.145640 -0.965801 133 102 74 255 2
0.349388 -0.253302 0.065886 -0.219775 0.085470 -0.971799 133 101 73 255 2
0.349249 -0.246909 0.066018 -0.233789 0.019367 -0.972094 133 101 74 255 2
0.349186 -0.240516 0.066299 -0.246905 -0.049923 -0.967753 132 101 73 255 2
0.348896 -0.234119 0.066135 -0.277187 -0.117000 -0.953666 132 101 73 255 2
0.347997 -0.227716 0.064786 -0.214774 -0.149912 -0.965090 132 102 74 255 2
0.346795 -0.221315 0.062845 -0.262956 -0.266279 -0.927335 130 101 74 255 2
0.345593 -0.214920 0.060904 -0.250239 -0.379362 -0.890767 128 101 73 255 2
0.343783 -0.208530 0.057779 -0.237330 -0.483696 -0.842444 126 100 72 255 2
0.341822 -0.202150 0.054358 -0.219328 -0.554472 -0.802780 122 97 71 255 2
0.339786 -0.195780 0.050788 -0.180655 -0.625086 -0.759362 121 97 71 255 2
0.337067 -0.189428 0.045887 -0.135588 -0.668654 -0.731107 120 95 69 255 2
0.333438 -0.183102 0.039209 -0.097339 -0.701483 -0.706008 121 96 69 255 2
0.329886 -0.176795 0.032680 -0.053688 -0.707076 -0.705096 121 96 69 255 4
0.326714 -0.170501 0.026892 0.014840 -0.692523 -0.721243 122 97 70 255 4
0.323923 -0.164217 0.021844 0.071604 -0.657925 -0.749671 124 97 70 255 4
0.320601 -0.157961 0.015760 0.116251 -0.627603 -0.769805 123 97 70 255 4
0.317355 -0.151722 0.009825 0.152073 -0.575106 -0.803820 122 97 71 255 4
0.315021 -0.145473 0.005667 0.187939 -0.520068 -0.833192 122 99 73 255 4
0.312535 -0.139242 0.001213 0.204035 -0.479183 -0.853671 123 100 74 255 4
0.310505 -0.133007 -0.002353 0.237780 -0.433054 -0.869439 126 103 76 255 4
0.308627 -0.126778 -0.005622 0.265695 -0.384245 -0.884173 127 104 77 255 4
0.306826 -0.120554 -0.008743 0.296746 -0.337147 -0.893462 128 104 78 255 4
0.305100 -0.114337 -0.011716 0.325596 -0.296087 -0.897953 129 105 78 255 4
0.303905 -0.108102 -0.013653 0.342287 -0.258645 -0.903295 129 104 78 255 4
0.302711 -0.101873 -0.015589 0.363958 -0.224121 -0.904049 129 105 78 255 4
0.301516 -0.095650 -0.017526 0.384102 -0.194842 -0.902498 129 105 78 255 4
0.300398 -0.089427 -0.019314 0.402262 -0.172910 -0.899048 129 105 79 255 4
0.299583 -0.083192 -0.020511 0.411484 -0.157552 -0.897696 130 105 79 255 4
0.298768 -0.076959 -0.021707 0.418549 -0.151099 -0.895537 130 105 79 255 4
0.297726 -0.070745 -0.023347 0.425147 -0.147064 -0.893097 129 105 80 255 4
0.296760 -0.064530 -0.024839 0.428433 -0.147030 -0.891531 130 105 80 255 4
0.295719 -0.058326 -0.026479 0.429987 -0.138765 -0.892107 130 105 79 255 4
0.294602 -0.052131 -0.028266 0.430098 -0.125968 -0.893950 128 105 80 255 4
0.293485 -0.045942 -0.030054 0.428482 -0.106344 -0.897271 128 106 80 255 4
0.292822 -0.039720 -0.030953 0.424492 -0.083056 -0.901614 128 106 80 255 4
0.292084 -0.033507 -0.032001 0.416514 -0.058286 -0.907259 129 107 81 255 4
0.291724 -0.027263 -0.032309 0.410428 -0.036394 -0.911167 128 106 80 255 4
0.291592 -0.020999 -0.032173 0.405278 -0.020248 -0.913969 129 107 81 255 4
0.291383 -0.014741 -0.032186 0.401544 -0.014285 -0.915728 131 106 80 255 4
0.291099 -0.008490 -0.032346 0.399350 -0.011542 -0.916726 132 107 81 255 4
0.290814 -0.002238 -0.032506 0.399127 -0.012135 -0.916815 134 108 82 255 4
0.290455 0.004005 -0.032814 0.400747 -0.009273 -0.916142 135 108 82 255 4
0.290019 0.010239 -0.033270 0.404191 -0.004355 -0.914664 135 107 81 255 4
0.289508 0.016465 -0.033873 0.408087 0.011005 -0.912877 135 108 81 255 4
0.289300 0.022723 -0.033886 0.413945 0.029903 -0.909811 135 108 81 255 4
0.289318 0.029009 -0.033454 0.419409 0.053987 -0.906191 135 107 81 255 4
0.289336 0.035296 -0.033023 0.424158 0.080260 -0.902025 133 106 79 255 4
0.289731 0.041632 -0.031853 0.425201 0.100116 -0.899545 132 104 78 255 4
0.290126 0.047972 -0.030682 0.425157 0.113422 -0.897985 132 104 78 255 4
0.290521 0.054316 -0.029512 0.423974 0.121418 -0.897499 134 105 79 255 4
0.290916 0.060664 -0.028342 0.420924 0.131759 -0.897476 134 104 78 255 4
0.291311 0.067017 -0.027172 0.417291 0.133907 -0.898853 133 104 78 255 4
0.291630 0.073363 -0.026150 0.409195 0.145049 -0.900844 132 104 78 255 4
0.291948 0.079713 -0.025128 0.399596 0.163465 -0.901999 131 105 79 255 4
0.292644 0.086122 -0.023367 0.383514 0.192134 -0.903328 130 105 79 255 4
0.293264 0.092525 -0.021754 0.362706 0.225724 -0.904153 131 106 79 255 4
0.293809 0.098923 -0.020289 0.334471 0.270925 -0.902623 131 105 78 255 4
0.294881 0.105407 -0.017789 0.302474 0.311780 -0.900723 132 105 78 255 4
0.296103 0.111924 -0.014995 0.265909 0.355072 -0.896223 132 104 77 255 4
0.297325 0.118450 -0.012200 0.241839 0.390257 -0.888377 132 105 76 255 4
0.298622 0.124997 -0.009258 0.197666 0.440647 -0.875647 130 103 74 255 4
0.300673 0.131680 -0.004839 0.167170 0.478808 -0.861857 128 102 73 255 4
0.302496 0.138340 -0.000863 0.138943 0.528238 -0.837651 127 102 72 255 4
0.304696 0.145077 0.003851 0.107930 0.573009 -0.812411 126 101 71 255 4
0.307648 0.151963 0.010043 0.051972 0.624615 -0.779202 126 101 72 255 4
0.310374 0.158828 0.015790 -0.007457 0.667993 -0.744131 127 101 72 255 4
0.313249 0.165740 0.021833 -0.096838 0.681956 -0.724954 126 100 72 255 4
0.316274 0.172699 0.028170 -0.175933 0.670740 -0.720525 126 98 71 255 4
0.319373 0.179693 0.034655 -0.205226 0.635044 -0.744716 127 98 72 255 4
0.321794 0.186578 0.039809 -0.240296 0.591495 -0.769670 128 98 72 255 2
0.323160 0.193274 0.042896 -0.294329 0.500785 -0.813993 131 100 73 255 2
0.324751 0.200025 0.046425 -0.317950 0.409552 -0.855087 134 103 76 255 2
0.326041 0.206727 0.049363 -0.301763 0.302196 -0.904222 136 105 77 255 2
0.326503 0.213269 0.050676 -0.298096 0.176875 -0.938005 137 107 79 255 2
0.326965 0.219816 0.051989 -0.282241 0.059699 -0.957484 136 108 80 255 2
0.327126 0.226304 0.052712 -0.268936 0.009056 -0.963115 135 108 79 255 2
0.326760 0.232683 0.052400 -0.265734 -0.052724 -0.962603 134 107 77 255 2
0.326168 0.239012 0.051646 -0.227594 -0.114491 -0.967002 134 103 75 255 2
0.325577 0.245339 0.050891 -0.195096 -0.174774 -0.965086 134 101 73 255 2
0.324760 0.251614 0.049694 -0.170942 -0.231911 -0.957599 133 99 71 255 2
0.323642 0.257818 0.047906 -0.148731 -0.279380 -0.948591 132 100 72 255 2
0.322375 0.263982 0.045823 -0.127422 -0.312672 -0.941276 132 100 73 255 2
0.320958 0.270105 0.043445 -0.108112 -0.332134 -0.937016 130 101 74 255 2
0.319540 0.276221 0.041067 -0.110476 -0.329975 -0.937503 129 100 73 255 2
0.318199 0.282348 0.038837 -0.105951 -0.323677 -0.940217 132 101 74 255 2
0.317083 0.288523 0.037050 -0.123855 -0.310860 -0.942351 131 101 74 255 2
0.315967 0.294693 0.035263 -0.116021 -0.302723 -0.945990 132 101 74 255 2
0.314926 0.300876 0.033624 -0.133693 -0.294770 -0.946170 131 103 75 255 2
0.313811 0.307036 0.031837 -0.155460 -0.289941 -0.944334 131 103 75 255 2
0.312846 0.313229 0.030346 -0.181229 -0.284203 -0.941480 131 103 75 255 2
0.311656 0.319359 0.028412 -0.212079 -0.274677 -0.937857 131 103 75 255 2
0.310541 0.325504 0.026625 -0.244830 -0.264203 -0.932875 130 102 75 255 2
0.309577 0.331683 0.025134 -0.258242 -0.263981 -0.929314 131 103 75 255 2
0.308837 0.337918 0.024086 -0.287820 -0.259310 -0.921910 129 102 75 255 2
0.308023 0.344130 0.022890 -0.311533 -0.264679 -0.912629 130 102 75 255 2
0.307210 0.350339 0.021695 -0.329696 -0.276124 -0.902805 130 103 76 255 2
0.306396 0.356544 0.020499 -0.302921 -0.281734 -0.910420 130 102 75 255 2
0.305357 0.362684 0.018861 -0.308284 -0.298170 -0.903358 129 102 76 255 2
0.304169 0.368776 0.016928 -0.305986 -0.310064 -0.900130 129 101 75 255 2
0.302906 0.374841 0.014848 -0.307278 -0.283284 -0.908477 131 102 76 255 2
0.301718 0.380922 0.012915 -0.366982 -0.205442 -0.907259 132 101 75 255 2
0.300681 0.387041 0.011277 -0.390993 -0.103934 -0.914507 131 102 74 255 2
0.299793 0.393199 0.009935 -0.436449 0.080217 -0.896146 128 100 73 255 2
0.300030 0.399690 0.010805 -0.374985 0.234982 -0.896755 125 98 71 255 2
0.301989 0.406704 0.015068 -0.365112 0.428122 -0.826683 121 93 67 255 2
0.304172 0.413801 0.019773 -0.348041 0.534485 -0.770191 117 86 61 255 2
0.307553 0.421283 0.026837 -0.269584 0.591905 -0.759588 117 83 58 255 2
0.311008 0.428810 0.034049 -0.205964 0.634313 -0.745135 92 75 55 255 2
0.345658 -0.431883 0.061337 -0.392165 -0.664737 -0.635870 93 70 50 255 2
0.341335 -0.425086 0.053309 -0.510268 -0.577896 -0.636916 96 70 49 255 2
0.337470 -0.418359 0.046171 -0.584162 -0.482352 -0.652757 102 76 53 255 2
0.335735 -0.411864 0.043189 -0.599790 -0.391475 -0.697853 113 84 58 255 2
0.334990 -0.405472 0.042136 -0.624287 -0.196446 -0.756092 120 89 61 255 2
0.334550 -0.399110 0.041676 -0.641003 -0.051464 -0.765811 121 90 63 255 2
0.334565 -0.392790 0.042107 -0.617389 0.044818 -0.785380 121 91 64 255 2
0.335113 -0.386514 0.043577 -0.571096 0.119683 -0.812112 122 91 65 255 2
0.335584 -0.380227 0.044898 -0.590759 0.146483 -0.793439 123 92 66 255 2
0.335828 -0.373916 0.045774 -0.559705 0.148220 -0.815329 124 93 68 255 2
0.335995 -0.367597 0.046501 -0.534786 0.140933 -0.833152 126 95 69 255 2
0.336542 -0.361303 0.047970 -0.512240 0.126059 -0.849540 125 96 70 255 2
0.336481 -0.354960 0.048252 -0.494478 0.120989 -0.860728 126 98 71 255 2
0.336419 -0.348617 0.048534 -0.476048 0.116907 -0.871614 126 98 72 255 2
0.336434 -0.342276 0.048964 -0.454586 0.121749 -0.882342 127 99 74 255 2
0.336600 -0.335944 0.049691 -0.430788 0.134945 -0.892307 128 100 74 255 2
0.336919 -0.329617 0.050715 -0.405067 0.155736 -0.900926 130 100 75 255 2
0.337237 -0.323287 0.051738 -0.377235 0.174740 -0.909483 131 101 75 255 2
0.337555 -0.316952 0.052762 -0.373059 0.195366 -0.907006 130 100 74 255 2
0.337948 -0.310618 0.053933 -0.361413 0.193457 -0.912116 132 102 75 255 2
0.338418 -0.304284 0.055253 -0.355252 0.209047 -0.911096 132 101 74 255 2
0.338811 -0.297941 0.056424 -0.331018 0.229066 -0.915399 131 101 74 255 2
0.339432 -0.291603 0.058040 -0.315679 0.247049 -0.916141 131 100 72 255 2
0.340128 -0.285262 0.059805 -0.305732 0.257589 -0.916611 130 100 72 255 2
0.340900 -0.278918 0.061717 -0.297672 0.246914 -0.922185 129 99 72 255 2
0.341595 -0.272565 0.063481 -0.274690 0.227842 -0.934149 130 100 72 255 2
0.342139 -0.266202 0.064948 -0.272617 0.185558 -0.944059 130 100 72 255 2
0.342683 -0.259834 0.066415 -0.270447 0.131956 -0.953649 131 100 72 255 2
0.342695 -0.253449 0.066844 -0.277870 0.074715 -0.957709 130 99 72 255 2
0.342708 -0.247062 0.067273 -0.296048 0.033344 -0.954591 130 99 72 255 2
0.342493 -0.240669 0.067258 -0.299180 -0.025874 -0.953846 129 98 72 255 2
0.342202 -0.234276 0.067094 -0.315460 -0.069653 -0.946379 129 99 72 255 2
0.341912 -0.227882 0.066930 -0.349594 -0.165941 -0.922089 127 99 72 255 2
0.341242 -0.221486 0.066026 -0.360524 -0.278642 -0.890158 126 99 72 255 2
0.340042 -0.215091 0.064083 -0.359340 -0.384269 -0.850419 124 98 71 255 2
0.338086 -0.208701 0.060659 -0.324378 -0.493374 -0.807069 122 97 70 255 2
0.335827 -0.202322 0.056643 -0.284912 -0.581675 -0.761892 121 97 70 255 2
0.333568 -0.195955 0.052626 -0.247684 -0.648909 -0.719423 120 96 69 255 2
0.330780 -0.189605 0.047573 -0.212734 -0.690606 -0.691237 118 94 67 255 2
0.327084 -0.183282 0.040742 -0.153977 -0.723532 -0.672899 119 93 67 255 4
0.323541 -0.176978 0.034208 -0.115564 -0.739339 -0.663342 120 94 67 255 4
0.320150 -0.170690 0.027971 -0.027897 -0.727939 -0.685074 120 94 67 255 4
0.316760 -0.164422 0.021734 0.040102 -0.704488 -0.708582 122 95 69 255 4
0.313068 -0.158180 0.014905 0.087871 -0.661659 -0.744638 121 95 69 255 4
0.309755 -0.151949 0.008817 0.132945 -0.606090 -0.784207 121 96 70 255 4
0.307199 -0.145714 0.004212 0.162221 -0.559429 -0.812849 121 97 71 255 4
0.304644 -0.139492 -0.000394 0.183695 -0.512913 -0.838556 123 100 74 255 4
0.302166 -0.133282 -0.004851 0.217635 -0.468056 -0.856480 124 101 74 255 4
0.300368 -0.127058 -0.007974 0.262115 -0.417058 -0.870263 126 103 76 255 4
0.298571 -0.120843 -0.011097 0.286748 -0.381435 -0.878796 127 105 78 255 4
0.296774 -0.114637 -0.014220 0.323906 -0.337651 -0.883785 128 105 78 255 4
0.295204 -0.108430 -0.016899 0.354102 -0.295570 -0.887271 130 106 80 255 4
0.294012 -0.102211 -0.018836 0.378646 -0.247644 -0.891796 130 106 80 255 4
0.292746 -0.096002 -0.020922 0.396370 -0.214547 -0.892670 129 106 80 255 4
0.291403 -0.089803 -0.023155 0.411142 -0.186863 -0.892213 129 106 80 255 4
0.290364 -0.083592 -0.024797 0.416874 -0.167561 -0.893386 129 106 81 255 4
0.289324 -0.077386 -0.026438 0.422554 -0.157888 -0.892479 129 106 80 255 4
0.288360 -0.071179 -0.027930 0.424720 -0.153103 -0.892285 129 106 80 255 4
0.287397 -0.064976 -0.029423 0.425061 -0.147825 -0.893012 130 107 80 255 4
0.286282 -0.058789 -0.031212 0.424023 -0.140622 -0.894668 130 106 80 255 4
0.285319 -0.052596 -0.032704 0.421184 -0.123228 -0.898565 129 107 81 255 4
0.284280 -0.046412 -0.034345 0.417467 -0.101298 -0.903028 128 106 80 255 4
0.283619 -0.040202 -0.035245 0.408972 -0.076498 -0.909335 128 107 80 255 4
0.283109 -0.033981 -0.035849 0.400277 -0.050815 -0.914984 129 107 81 255 4
0.282750 -0.027748 -0.036156 0.394184 -0.028657 -0.918585 128 106 80 255 4
0.282542 -0.021502 -0.036168 0.390358 -0.013521 -0.920564 130 107 81 255 4
0.282409 -0.015247 -0.036032 0.387053 -0.009428 -0.922009 130 106 80 255 4
0.282125 -0.009007 -0.036192 0.384876 -0.009053 -0.922924 131 107 81 255 4
0.281842 -0.002767 -0.036352 0.384629 -0.015347 -0.922944 134 109 82 255 4
0.281482 0.003465 -0.036660 0.386154 -0.015053 -0.922312 135 109 83 255 4
0.281048 0.009689 -0.037115 0.389046 -0.013448 -0.921120 135 108 82 255 4
0.280538 0.015903 -0.037719 0.391470 -0.000007 -0.920191 135 108 81 255 4
0.280255 0.022142 -0.037879 0.396377 0.020735 -0.917854 133 107 80 255 4
0.280197 0.028408 -0.037595 0.401378 0.042519 -0.914925 133 106 79 255 4
0.280139 0.034674 -0.037311 0.406534 0.067952 -0.911105 132 105 78 255 4
0.280458 0.040989 -0.036287 0.414104 0.094130 -0.905349 133 106 79 255 4
0.280777 0.047308 -0.035263 0.416613 0.110597 -0.902332 133 105 79 255 4
0.281095 0.053630 -0.034240 0.417797 0.121862 -0.900331 134 105 79 255 4
0.281489 0.059966 -0.033068 0.418142 0.131926 -0.898751 134 105 79 255 4
0.281882 0.066306 -0.031897 0.418177 0.139070 -0.897656 135 106 79 255 4
0.282200 0.072640 -0.030873 0.415291 0.151824 -0.896930 133 106 79 255 4
0.282818 0.079020 -0.029258 0.407860 0.174541 -0.896206 133 107 80 255 4
0.283437 0.085406 -0.027644 0.396060 0.205308 -0.894978 132 106 80 255 4
0.284206 0.091821 -0.025733 0.374422 0.244981 -0.894311 132 106 79 255 4
0.285049 0.098253 -0.023675 0.351898 0.299958 -0.886675 133 107 80 255 4
0.286419 0.104773 -0.020581 0.321725 0.337653 -0.884581 132 106 78 255 4
0.287713 0.111292 -0.017636 0.278389 0.390856 -0.877343 133 105 77 255 4
0.288931 0.117809 -0.014839 0.232123 0.429447 -0.872751 132 104 76 255 4
0.290676 0.124421 -0.011007 0.199634 0.459307 -0.865554 130 103 73 255 4
0.292645 0.131084 -0.006732 0.164576 0.499719 -0.850409 128 102 73 255 4
0.294538 0.137748 -0.002605 0.119391 0.567277 -0.814827 126 100 71 255 4
0.297032 0.144530 0.002705 0.091420 0.611447 -0.785987 125 100 71 255 4
0.299826 0.151382 0.008606 0.031910 0.659576 -0.750960 127 102 73 255 4
0.303745 0.158456 0.016724 -0.069485 0.713922 -0.696769 127 101 72 255 4
0.306687 0.165378 0.022919 -0.132444 0.716010 -0.685411 126 98 70 255 4
0.309778 0.172347 0.029410 -0.207389 0.695983 -0.687457 125 97 69 255 4
0.313169 0.179395 0.036491 -0.264434 0.652043 -0.710573 126 96 69 255 4
0.316183 0.186393 0.042832 -0.308004 0.573953 -0.758756 127 96 70 255 2
0.317545 0.193088 0.045921 -0.356772 0.501110 -0.788418 132 99 72 255 2
0.319057 0.199824 0.049305 -0.367442 0.396973 -0.841070 134 102 74 255 2
0.320567 0.206571 0.052689 -0.390537 0.281436 -0.876513 137 105 76 255 2
0.321027 0.213113 0.054004 -0.405704 0.158150 -0.900218 138 106 78 255 2
0.320812 0.219520 0.053988 -0.372814 0.051230 -0.926491 137 106 77 255 2
0.320446 0.225896 0.053676 -0.337204 -0.044210 -0.940393 135 105 76 255 2
0.320081 0.232271 0.053365 -0.307365 -0.086677 -0.947636 135 104 75 255 2
0.319640 0.238629 0.052906 -0.279980 -0.121697 -0.952261 135 102 74 255 2
0.318900 0.244920 0.051855 -0.248616 -0.179822 -0.951764 135 100 72 255 2
0.318234 0.251225 0.050953 -0.245484 -0.223027 -0.943396 133 99 71 255 2
0.317044 0.257409 0.049016 -0.230757 -0.276681 -0.932845 133 98 70 255 2
0.315929 0.263604 0.047227 -0.228511 -0.324782 -0.917769 134 98 71 255 2
0.314515 0.269724 0.044847 -0.224264 -0.356481 -0.906988 133 99 71 255 2
0.313101 0.275838 0.042468 -0.220582 -0.358291 -0.907178 130 99 71 255 2
0.311687 0.281944 0.040088 -0.220776 -0.349988 -0.910366 131 99 72 255 2
0.310499 0.288098 0.038152 -0.210985 -0.330078 -0.920073 131 98 72 255 2
0.309385 0.294264 0.036364 -0.224174 -0.314578 -0.922381 130 98 71 255 2
0.308197 0.300407 0.034428 -0.243571 -0.303984 -0.921014 130 99 72 255 2
0.307084 0.306563 0.032641 -0.242321 -0.293388 -0.924772 130 100 74 255 2
0.306046 0.312733 0.031000 -0.273044 -0.283463 -0.919291 128 101 75 255 2
0.305083 0.318918 0.029508 -0.304066 -0.270207 -0.913527 126 100 74 255 2
0.304046 0.325079 0.027868 -0.334945 -0.254300 -0.907272 126 101 74 255 2
0.303083 0.331255 0.026376 -0.363885 -0.244069 -0.898898 128 101 74 255 2
0.302346 0.337488 0.025328 -0.337249 -0.248738 -0.907960 128 101 74 255 2
0.301683 0.343737 0.024426 -0.354458 -0.254233 -0.899847 128 101 73 255 2
0.300945 0.349964 0.023378 -0.366740 -0.270252 -0.890205 129 101 74 255 2
0.300208 0.356188 0.022329 -0.379397 -0.276667 -0.882900 127 99 72 255 2
0.299471 0.362409 0.021281 -0.395444 -0.289573 -0.871649 127 98 71 255 2
0.298360 0.368521 0.019494 -0.425060 -0.288763 -0.857869 128 98 71 255 2
0.297174 0.374607 0.017560 -0.444436 -0.262963 -0.856345 128 97 70 255 2
0.295914 0.380665 0.015478 -0.482467 -0.190455 -0.854958 128 96 70 255 2
0.294729 0.386740 0.013544 -0.496126 -0.086208 -0.863960 129 97 70 255 2
0.294516 0.393096 0.013529 -0.518744 0.060062 -0.852817 126 96 70 255 2
0.295124 0.399699 0.015138 -0.544964 0.248796 -0.800696 121 94 68 255 2
0.295807 0.406331 0.016895 -0.464071 0.415383 -0.782365 116 88 63 255 2
0.298283 0.413517 0.022194 -0.450359 0.508111 -0.734166 112 82 57 255 2
0.301579 0.420974 0.029117 -0.402331 0.571522 -0.715187 117 82 56 255 2
0.304949 0.428477 0.036187 -0.376746 0.598098 -0.707348 93 76 54 255 2
0.338767 -0.425566 0.062267 -0.539752 -0.627029 -0.561696 90 68 47 255 2
0.334531 -0.418792 0.054381 -0.663901 -0.485866 -0.568480 95 69 47 255 2
0.331890 -0.412198 0.049615 -0.677435 -0.382934 -0.628048 99 73 49 255 2
0.330767 -0.405765 0.047819 -0.755890 -0.254743 -0.603105 106 78 53 255 2
0.330250 -0.399392 0.047210 -0.708393 -0.107076 -0.697648 111 82 57 255 2
0.330037 -0.393048 0.047196 -0.730644 -0.007022 -0.682722 114 85 59 255 2
0.329976 -0.386717 0.047479 -0.701855 0.087240 -0.706958 116 87 61 255 2
0.330066 -0.380397 0.048059 -0.682887 0.105698 -0.722837 117 88 62 255 2
0.330384 -0.374092 0.049084 -0.685771 0.118358 -0.718129 117 88 63 255 2
0.330777 -0.367790 0.050257 -0.656224 0.113373 -0.746001 118 89 63 255 2
0.331246 -0.361490 0.051579 -0.633139 0.104599 -0.766938 119 91 65 255 2
0.331260 -0.355152 0.052010 -0.646969 0.090309 -0.757149 119 92 66 255 2
0.331350 -0.348818 0.052589 -0.629596 0.087973 -0.771926 120 93 68 255 2
0.331364 -0.342476 0.053020 -0.614662 0.090473 -0.783585 120 94 69 255 2
0.331453 -0.336137 0.053599 -0.624733 0.103342 -0.773970 120 94 69 255 2
0.331542 -0.329796 0.054178 -0.604523 0.121232 -0.787309 122 94 69 255 2
0.331783 -0.323461 0.055054 -0.579730 0.136170 -0.803350 123 95 69 255 2
0.332099 -0.317127 0.056078 -0.550153 0.150083 -0.821466 125 96 70 255 2
0.332415 -0.310789 0.057103 -0.522364 0.168404 -0.835928 127 97 70 255 2
0.332807 -0.304450 0.058275 -0.496890 0.188806 -0.847026 130 97 70 255 2
0.333274 -0.298111 0.059596 -0.475531 0.211931 -0.853789 129 96 70 255 2
0.333817 -0.291770 0.061065 -0.455627 0.233159 -0.859093 129 95 69 255 2
0.334435 -0.285427 0.062682 -0.462482 0.252614 -0.849880 130 96 69 255 2
0.335128 -0.279081 0.064448 -0.447337 0.240431 -0.861442 129 96 69 255 2
0.335746 -0.272727 0.066065 -0.439234 0.209427 -0.873621 128 97 70 255 2
0.336287 -0.266364 0.067533 -0.425095 0.171266 -0.888798 128 97 70 255 2
0.336753 -0.259995 0.068853 -0.413687 0.122802 -0.902099 129 98 70 255 2
0.336765 -0.253611 0.069283 -0.406882 0.073328 -0.910533 129 98 72 255 2
0.336701 -0.247224 0.069564 -0.406860 0.020239 -0.913266 127 97 70 255 2
0.336637 -0.240836 0.069846 -0.416788 -0.000872 -0.909003 126 97 71 255 2
0.336195 -0.234441 0.069385 -0.434463 -0.069885 -0.897974 125 96 70 255 2
0.335678 -0.228047 0.068777 -0.462077 -0.138662 -0.875932 124 96 69 255 2
0.335161 -0.221654 0.068168 -0.462974 -0.250643 -0.850196 123 95 69 255 2
0.334568 -0.215262 0.067411 -0.407983 -0.389041 -0.825952 121 95 68 255 2
0.332540 -0.208871 0.063836 -0.382713 -0.474823 -0.792511 120 94 68 255 2
0.330437 -0.202492 0.060113 -0.334583 -0.585845 -0.738133 118 94 67 255 2
0.328335 -0.196124 0.056390 -0.300397 -0.647756 -0.700124 118 93 67 255 2
0.325402 -0.189774 0.051036 -0.264530 -0.706837 -0.656052 118 93 66 255 2
0.321188 -0.183457 0.043162 -0.209634 -0.740920 -0.638038 118 92 65 255 4
0.317276 -0.177159 0.035882 -0.155327 -0.771457 -0.617031 118 92 64 255 4
0.313666 -0.170878 0.029195 -0.067823 -0.767338 -0.637646 120 93 66 255 4
0.309530 -0.164628 0.021471 -0.001638 -0.737063 -0.675822 120 93 67 255 4
0.305470 -0.158401 0.013895 0.074013 -0.687680 -0.722231 120 94 68 255 4
0.302317 -0.152172 0.008100 0.115373 -0.640618 -0.759142 120 95 69 255 4
0.299390 -0.145954 0.002749 0.145321 -0.593950 -0.791268 121 97 71 255 4
0.296842 -0.139739 -0.001859 0.181336 -0.536018 -0.824501 122 99 72 255 4
0.294294 -0.133539 -0.006467 0.214269 -0.504041 -0.836679 125 102 75 255 4
0.292199 -0.127334 -0.010186 0.254413 -0.461860 -0.849682 125 103 76 255 4
0.290331 -0.121131 -0.013460 0.301172 -0.419061 -0.856553 126 104 77 255 4
0.288463 -0.114937 -0.016733 0.338722 -0.370493 -0.864871 127 105 78 255 4
0.286294 -0.108769 -0.020599 0.370949 -0.324100 -0.870262 129 107 80 255 4
0.284804 -0.102576 -0.023130 0.390446 -0.275837 -0.878331 129 107 81 255 4
0.283465 -0.096382 -0.025366 0.405895 -0.227130 -0.885247 128 108 82 255 4
0.282202 -0.090191 -0.027452 0.417031 -0.196614 -0.887372 128 107 81 255 4
0.281014 -0.084001 -0.029391 0.419182 -0.173806 -0.891111 127 107 81 255 4
0.280052 -0.077802 -0.030884 0.419654 -0.161820 -0.893143 128 107 81 255 4
0.279091 -0.071607 -0.032378 0.417984 -0.156289 -0.894909 128 107 81 255 4
0.278129 -0.065416 -0.033871 0.415383 -0.147677 -0.897579 127 106 79 255 4
0.277168 -0.059230 -0.035364 0.411515 -0.136788 -0.901080 129 106 80 255 4
0.276207 -0.053047 -0.036858 0.405493 -0.116975 -0.906583 129 106 80 255 4
0.275322 -0.046863 -0.038203 0.397951 -0.096948 -0.912270 129 106 79 255 4
0.274738 -0.040658 -0.038955 0.387256 -0.067492 -0.919499 129 106 80 255 4
0.274153 -0.034454 -0.039707 0.379579 -0.041372 -0.924234 129 106 80 255 4
0.273870 -0.028225 -0.039867 0.373541 -0.020922 -0.927378 130 106 80 255 4
0.273737 -0.021983 -0.039730 0.370759 -0.009033 -0.928685 131 107 81 255 4
0.273605 -0.015739 -0.039593 0.367508 -0.004369 -0.930010 131 107 81 255 4
0.273246 -0.009517 -0.039901 0.365861 -0.008566 -0.930630 131 107 81 255 4
0.272888 -0.003295 -0.040209 0.365626 -0.015670 -0.930630 133 108 82 255 4
0.272680 0.002942 -0.040220 0.366894 -0.021455 -0.930015 134 109 83 255 4
0.272246 0.009155 -0.040676 0.369221 -0.020414 -0.929117 135 109 82 255 4
0.271737 0.015359 -0.041280 0.370653 -0.009852 -0.928719 134 108 81 255 4
0.271304 0.021570 -0.041735 0.375902 0.008097 -0.926624 133 107 80 255 4
0.271246 0.027825 -0.041451 0.381583 0.031819 -0.923787 133 107 80 255 4
0.271188 0.034081 -0.041166 0.387095 0.058952 -0.920153 132 106 79 255 4
0.271356 0.040366 -0.040437 0.395917 0.084499 -0.914390 132 106 79 255 4
0.271598 0.046663 -0.039560 0.399673 0.103522 -0.910793 132 106 79 255 4
0.271915 0.052974 -0.038535 0.403563 0.118118 -0.907296 133 106 79 255 4
0.272308 0.059298 -0.037362 0.407729 0.130272 -0.903762 134 107 80 255 4
0.272625 0.065616 -0.036338 0.408288 0.140479 -0.901979 135 107 80 255 4
0.272942 0.071938 -0.035313 0.408793 0.154934 -0.899379 135 108 81 255 4
0.273408 0.078285 -0.033993 0.405797 0.176961 -0.896668 135 108 81 255 4
0.274025 0.084659 -0.032376 0.402775 0.209654 -0.890964 134 107 80 255 4
0.274716 0.091049 -0.030612 0.388916 0.265499 -0.882187 134 107 80 255 4
0.275932 0.097526 -0.027811 0.366997 0.321660 -0.872839 134 107 80 255 4
0.277598 0.104081 -0.024123 0.341572 0.368257 -0.864705 133 106 78 255 4
0.279113 0.110625 -0.020731 0.288949 0.432729 -0.853963 133 106 77 255 4
0.280628 0.117180 -0.017339 0.248455 0.464660 -0.849918 133 105 76 255 4
0.282667 0.123833 -0.012912 0.197722 0.496507 -0.845214 131 103 74 255 4
0.284631 0.130488 -0.008633 0.154372 0.536575 -0.829613 128 101 72 255 4
0.286818 0.137195 -0.003910 0.110351 0.596414 -0.795055 126 101 72 255 4
0.289455 0.143996 0.001700 0.061757 0.631005 -0.773317 126 100 71 255 4
0.292241 0.150841 0.007605 0.004655 0.698472 -0.715623 127 100 71 255 4
0.296374 0.157949 0.016174 -0.078112 0.739955 -0.668105 126 99 70 255 4
0.300581 0.165098 0.024890 -0.155053 0.751001 -0.641838 126 97 68 255 4
0.304038 0.172136 0.032125 -0.257534 0.719973 -0.644450 127 96 68 255 4
0.307793 0.179253 0.039952 -0.311205 0.674337 -0.669642 126 95 67 255 4
0.310424 0.186179 0.045559 -0.365379 0.564109 -0.740459 126 95 67 255 4
0.312305 0.192976 0.049686 -0.402832 0.481058 -0.778658 129 97 70 255 2
0.313662 0.199683 0.052777 -0.440557 0.378928 -0.813832 131 100 72 255 2
0.314943 0.206385 0.055720 -0.465912 0.265795 -0.843966 134 102 74 255 2
0.315027 0.212850 0.056296 -0.472858 0.137975 -0.870269 134 102 73 255 2
0.314811 0.219256 0.056280 -0.452952 0.016597 -0.891381 134 101 73 255 2
0.314670 0.225677 0.056413 -0.448611 -0.059464 -0.891747 134 101 72 255 2
0.314305 0.232052 0.056101 -0.423252 -0.091896 -0.901340 133 100 72 255 2
0.313715 0.238376 0.055346 -0.400669 -0.148285 -0.904144 133 99 70 255 2
0.313051 0.244683 0.054443 -0.387308 -0.198047 -0.900428 132 97 69 255 2
0.312237 0.250954 0.053244 -0.380278 -0.246802 -0.891335 130 96 68 255 2
0.311124 0.257153 0.051453 -0.378732 -0.293040 -0.877889 130 95 67 255 2
0.309937 0.263330 0.049515 -0.395662 -0.333776 -0.855596 131 97 68 255 2
0.308601 0.269466 0.047282 -0.397676 -0.355590 -0.845819 129 96 67 255 2
0.307190 0.275579 0.044901 -0.404101 -0.367074 -0.837830 128 96 68 255 2
0.305854 0.281702 0.042667 -0.397948 -0.359356 -0.844098 129 96 68 255 2
0.304668 0.287855 0.040730 -0.413078 -0.341304 -0.844321 130 96 69 255 2
0.303556 0.294020 0.038940 -0.427922 -0.322318 -0.844389 130 96 69 255 2
0.302445 0.300181 0.037151 -0.425638 -0.300033 -0.853705 129 96 69 255 2
0.301484 0.306374 0.035658 -0.449385 -0.286957 -0.845996 126 96 69 255 2
0.300523 0.312563 0.034164 -0.471773 -0.274061 -0.838046 123 95 69 255 2
0.299487 0.318729 0.032523 -0.497282 -0.263297 -0.826671 123 96 70 255 2
0.298676 0.324948 0.031326 -0.518878 -0.247669 -0.818184 124 96 70 255 2
0.297864 0.331165 0.030128 -0.534602 -0.240510 -0.810158 126 97 71 255 2
0.297128 0.337398 0.029079 -0.547537 -0.239814 -0.801681 125 96 69 255 2
0.296391 0.343628 0.028029 -0.556205 -0.247663 -0.793284 124 96 69 255 2
0.295729 0.349876 0.027128 -0.537335 -0.256213 -0.803509 124 95 69 255 2
0.294471 0.355956 0.025044 -0.549816 -0.268687 -0.790892 124 95 68 255 2
0.293437 0.362092 0.023403 -0.567025 -0.274576 -0.776589 123 93 66 255 2
0.292477 0.368246 0.021911 -0.595322 -0.261837 -0.759627 121 91 65 255 2
0.291369 0.374352 0.020123 -0.601112 -0.235829 -0.763577 123 91 65 255 2
0.290484 0.380518 0.018779 -0.667426 -0.146470 -0.730129 123 92 66 255 2
0.289898 0.386767 0.018025 -0.682544 -0.068975 -0.727582 122 92 66 255 2
0.289610 0.393104 0.017863 -0.695560 0.110647 -0.709897 118 90 65 255 2
0.289769 0.399575 0.018587 -0.680722 0.263794 -0.683396 110 85 61 255 2
0.290971 0.406365 0.021379 -0.615828 0.368841 -0.696213 104 80 55 255 2
0.293885 0.413690 0.027569 -0.545704 0.497120 -0.674596 106 77 53 255 2
0.297172 0.421150 0.034497 -0.468525 0.566575 -0.677847 108 79 54 255 2
0.492185 -0.442440 0.377573 0.056026 -0.995405 -0.077658 74 70 53 255 2
0.332714 -0.419340 0.064829 -0.738744 -0.477485 -0.475673 86 66 46 255 2
0.329700 -0.412698 0.059316 -0.787336 -0.380441 -0.485145 89 67 45 255 2
0.326914 -0.406094 0.054248 -0.826349 -0.221029 -0.517970 90 68 46 255 2
0.325944 -0.399674 0.052748 -0.845102 -0.146580 -0.514118 94 72 50 255 2
0.325807 -0.393333 0.052882 -0.820639 -0.047693 -0.569453 99 75 52 255 2
0.325669 -0.386992 0.053017 -0.803869 0.032583 -0.593913 103 76 53 255 2
0.325531 -0.380649 0.053151 -0.788986 0.065810 -0.610876 106 78 55 255 2
0.325923 -0.374348 0.054326 -0.755952 0.078516 -0.649901 107 79 56 255 2
0.326390 -0.368048 0.055649 -0.739759 0.076576 -0.668501 109 81 57 255 2
0.326781 -0.361738 0.056823 -0.758751 0.075768 -0.646959 111 84 59 255 2
0.326869 -0.355403 0.057403 -0.764449 0.066676 -0.641227 113 86 61 255 2
0.326807 -0.349055 0.057685 -0.744367 0.065136 -0.664586 113 87 63 255 2
0.326820 -0.342710 0.058117 -0.726152 0.071748 -0.683781 116 90 65 255 2
0.326832 -0.336364 0.058548 -0.720711 0.075001 -0.689167 116 90 65 255 2
0.326845 -0.330015 0.058979 -0.707239 0.077316 -0.702735 117 91 65 255 2
