ply
format ascii 1.0
comment Created by labeled_geometry.py
element vertex 644
property float x
property float y
property float z
property float nx
property float ny
property float nz
property uchar red
property uchar green
property uchar blue
property uchar alpha
property uchar label
end_header
-0.328803 0.246703 -0.024902 -0.389618 -0.503697 -0.771030 111 80 59 255 3
-0.330167 0.248949 -0.025383 -0.422838 -0.471795 -0.773704 111 81 59 255 3
-0.331581 0.251119 -0.025970 -0.452400 -0.440460 -0.775454 111 81 59 255 3
-0.332944 0.253363 -0.026451 -0.476414 -0.406017 -0.779859 111 82 59 255 3
-0.334256 0.255682 -0.026826 -0.494523 -0.375477 -0.783877 111 82 59 255 3
-0.335418 0.258228 -0.026885 -0.511048 -0.340534 -0.789219 110 81 58 255 3
-0.336629 0.260698 -0.027048 -0.524788 -0.310009 -0.792775 109 80 57 255 3
-0.337841 0.263168 -0.027212 -0.542430 -0.273351 -0.794386 109 80 57 255 3
-0.339052 0.265638 -0.027376 -0.558588 -0.238714 -0.794352 108 79 57 255 3
-0.340164 0.268261 -0.027329 -0.580221 -0.200803 -0.789317 107 79 58 255 3
-0.341177 0.271039 -0.027071 -0.609175 -0.144444 -0.779770 106 78 57 255 3
-0.342140 0.273895 -0.026707 -0.637196 -0.076135 -0.766932 106 78 57 255 3
-0.343104 0.276752 -0.026343 -0.665861 -0.017652 -0.745867 106 76 56 255 3
-0.343821 0.279997 -0.025452 -0.683879 0.018942 -0.729350 104 74 54 255 3
-0.344441 0.283401 -0.024349 -0.716306 0.125839 -0.686345 104 73 53 255 3
-0.344866 0.287118 -0.022825 -0.738696 0.229545 -0.633749 103 72 52 255 3
-0.344799 0.291619 -0.020246 -0.747069 0.260400 -0.611621 97 68 49 255 3
-0.213139 0.504375 0.264367 0.023591 -0.049530 -0.998494 92 74 56 255 3
-0.126232 -0.202099 -0.012764 0.683100 -0.027187 -0.729819 113 84 64 255 3
-0.131516 -0.202539 -0.019716 0.625696 -0.000865 -0.780066 124 90 69 255 3
-0.133357 -0.200566 -0.020955 0.600188 0.014316 -0.799731 122 90 68 255 3
-0.135002 -0.198458 -0.021871 0.568123 0.043938 -0.821770 124 91 69 255 3
-0.136581 -0.196306 -0.022679 0.549592 0.070496 -0.832454 122 90 67 255 3
-0.138224 -0.194203 -0.023594 0.495777 0.103079 -0.862311 125 91 67 255 3
-0.139866 -0.192102 -0.024509 0.452079 0.129297 -0.882557 123 90 67 255 3
-0.141442 -0.189956 -0.025317 0.428522 0.160087 -0.889236 123 90 67 255 3
-0.143081 -0.187859 -0.026232 0.384101 0.197690 -0.901879 123 90 67 255 3
-0.144206 -0.185388 -0.026285 0.353790 0.227882 -0.907139 123 90 67 255 3
-0.144690 -0.182444 -0.025261 0.335906 0.262873 -0.904469 123 90 67 255 3
-0.145175 -0.179497 -0.024238 0.301028 0.303349 -0.904080 122 89 67 255 3
-0.145662 -0.176546 -0.023215 0.280073 0.334355 -0.899870 121 90 67 255 3
-0.146151 -0.173591 -0.022192 0.251804 0.360697 -0.898049 121 90 67 255 3
-0.146514 -0.170537 -0.020954 0.234956 0.375627 -0.896493 121 91 68 255 3
-0.146752 -0.167382 -0.019501 0.217987 0.384404 -0.897059 119 90 66 255 3
-0.147056 -0.164270 -0.018156 0.208196 0.388556 -0.897596 120 90 66 255 3
-0.147425 -0.161203 -0.016919 0.195360 0.390679 -0.899558 122 91 67 255 3
-0.147797 -0.158131 -0.015683 0.187584 0.394290 -0.899638 122 90 66 255 3
-0.148171 -0.155054 -0.014446 0.189404 0.398632 -0.897340 123 90 67 255 3
-0.148547 -0.151974 -0.013210 0.185521 0.410394 -0.892837 122 90 66 255 3
-0.148925 -0.148889 -0.011974 0.180734 0.425685 -0.886638 122 90 66 255 3
-0.148990 -0.145554 -0.010201 0.180292 0.439751 -0.879837 122 90 66 255 3
-0.148994 -0.142163 -0.008321 0.182419 0.447763 -0.875346 122 90 65 255 3
-0.149064 -0.138815 -0.006548 0.185761 0.448164 -0.874438 122 89 65 255 3
-0.149138 -0.135462 -0.004776 0.167127 0.409855 -0.896709 120 87 64 255 3
-0.149277 -0.132152 -0.003112 0.119269 0.361491 -0.924716 121 88 65 255 3
-0.149607 -0.128988 -0.001771 0.082597 0.346172 -0.934528 121 88 64 255 3
-0.149939 -0.125818 -0.000430 0.034014 0.301018 -0.953012 120 87 63 255 3
-0.150336 -0.122694 0.000804 -0.016609 0.256791 -0.966324 114 80 57 255 3
-0.150610 -0.119465 0.002251 -0.097135 0.334519 -0.937370 107 75 53 255 3
-0.150825 -0.116180 0.003806 -0.145022 0.388140 -0.910119 92 64 43 255 3
-0.151042 -0.112890 0.005361 -0.157025 0.488233 -0.858470 83 56 36 255 3
-0.151510 -0.109799 0.006486 -0.182072 0.513628 -0.838472 77 52 33 255 3
-0.152043 -0.106755 0.007503 -0.249394 0.523442 -0.814746 77 53 35 255 3
-0.152577 -0.103707 0.008519 -0.172387 0.511081 -0.842068 80 58 40 255 3
-0.153113 -0.100656 0.009536 -0.163404 0.505297 -0.847333 90 72 57 255 3
-0.153404 -0.097394 0.010981 0.434165 0.776963 -0.455884 100 90 77 255 3
-0.163222 -0.102117 -0.004108 -0.581942 -0.382885 -0.717455 107 106 95 255 3
-0.164246 -0.099496 -0.003950 -0.631223 -0.368610 -0.682410 109 110 100 255 3
-0.164345 -0.096090 -0.002181 -0.665232 -0.310692 -0.678923 107 108 96 255 4
-0.165310 -0.093411 -0.001916 -0.497335 -0.014956 -0.867429 105 106 95 255 4
-0.166275 -0.090731 -0.001651 -0.509342 -0.005850 -0.860544 109 108 97 255 4
-0.167179 -0.087998 -0.001278 -0.527478 -0.027492 -0.849124 109 109 97 255 4
-0.168084 -0.085262 -0.000905 -0.522480 -0.040595 -0.851685 106 105 94 255 4
-0.168990 -0.082525 -0.000533 -0.539325 -0.041221 -0.841088 106 106 94 255 4
-0.169897 -0.079786 -0.000161 -0.557613 -0.086760 -0.825554 104 104 92 255 4
-0.170805 -0.077046 0.000211 -0.573697 -0.079992 -0.815152 105 104 92 255 4
-0.171774 -0.074357 0.000476 -0.590587 -0.066073 -0.804265 106 105 93 255 4
-0.172683 -0.071613 0.000848 -0.607544 -0.061469 -0.791904 106 105 93 255 4
-0.172924 -0.068276 0.002400 -0.625526 -0.104248 -0.773208 100 99 87 255 4
-0.173227 -0.064986 0.003844 -0.679980 -0.159714 -0.715625 103 102 90 255 4
-0.174566 -0.062614 0.003464 -0.717861 -0.229870 -0.657142 102 102 90 255 4
-0.175964 -0.060296 0.002978 -0.754250 -0.282825 -0.592552 104 102 91 255 4
-0.177302 -0.057925 0.002599 -0.770457 -0.309954 -0.557068 99 97 86 255 4
-0.178700 -0.055609 0.002113 -0.786864 -0.334865 -0.518372 102 100 89 255 4
-0.180036 -0.053240 0.001734 -0.806897 -0.319862 -0.496594 104 102 90 255 4
-0.181192 -0.050705 0.001677 -0.825111 -0.310346 -0.472098 101 99 87 255 4
-0.181746 -0.047619 0.002691 -0.838313 -0.259559 -0.479438 97 95 84 255 4
-0.182301 -0.044529 0.003705 -0.839463 -0.227630 -0.493443 104 102 91 255 4
-0.182858 -0.041435 0.004718 -0.843222 -0.221002 -0.490035 98 97 85 255 4
-0.183896 -0.038784 0.004875 -0.850380 -0.233213 -0.471663 96 95 84 255 4
-0.185295 -0.036466 0.004388 -0.850485 -0.265761 -0.453924 98 97 86 255 4
-0.186693 -0.034149 0.003902 -0.855780 -0.312963 -0.411940 96 95 83 255 4
-0.188031 -0.031778 0.003523 -0.841283 -0.358432 -0.404684 91 90 79 255 4
-0.189369 -0.029406 0.003144 -0.831390 -0.397067 -0.388753 98 96 85 255 4
-0.190229 -0.026584 0.003622 -0.838026 -0.424764 -0.342474 91 89 79 255 4
-0.191031 -0.023702 0.004206 -0.846659 -0.406557 -0.343337 94 93 82 255 4
-0.192191 -0.021160 0.004148 -0.863586 -0.342596 -0.369930 92 90 79 255 4
-0.193529 -0.018788 0.003769 -0.883680 -0.250435 -0.395464 94 93 82 255 4
-0.194926 -0.016474 0.003283 -0.910482 -0.099048 -0.401513 94 93 81 255 4
-0.194843 -0.012727 0.005472 -0.911481 0.082817 -0.402919 94 92 81 255 4
-0.195059 -0.009261 0.007126 -0.909852 0.215211 -0.354759 94 93 81 255 4
-0.193271 -0.003828 0.012417 -0.866906 0.206315 -0.453772 90 89 78 255 4
-0.193024 0.000118 0.014925 -0.812309 0.041310 -0.581762 90 88 78 255 4
-0.194311 0.002564 0.014652 -0.726087 -0.068915 -0.684140 94 93 82 255 4
-0.195598 0.005009 0.014379 -0.595049 -0.186726 -0.781697 104 103 92 255 4
-0.195300 0.009030 0.016993 -0.496354 -0.241196 -0.833941 102 101 90 255 4
-0.196881 0.011187 0.016185 -0.426919 -0.270669 -0.862831 100 99 88 255 4
-0.198521 0.013283 0.015270 -0.427484 -0.205602 -0.880332 100 99 89 255 4
-0.200159 0.015377 0.014356 -0.497590 -0.131706 -0.857355 105 104 93 255 4
-0.201796 0.017469 0.013441 -0.558887 -0.087312 -0.824634 106 105 94 255 4
-0.202791 0.020209 0.013703 -0.657257 -0.002075 -0.753663 95 95 84 255 4
-0.201283 0.025502 0.018560 -0.740657 0.112167 -0.662454 96 95 84 255 4
-0.202922 0.027597 0.017645 -0.787888 0.193987 -0.584467 103 103 90 255 4
-0.202877 0.031421 0.019829 -0.868922 0.301922 -0.392196 90 89 75 255 4
-0.200285 0.037884 0.026714 -0.907217 0.322392 -0.270225 88 74 58 255 4
-0.200250 0.041729 0.028896 -0.897484 0.372976 -0.235396 84 62 42 255 3
-0.198080 0.047807 0.035031 -0.920952 0.338585 -0.192893 84 60 41 255 3
-0.195459 0.054388 0.042019 -0.972650 0.100721 -0.209301 84 60 41 255 3
-0.196536 0.057119 0.042170 -0.966229 -0.077787 -0.245663 83 59 41 255 3
-0.197672 0.059791 0.042214 -0.955716 -0.173313 -0.237845 83 60 41 255 3
-0.198693 0.062585 0.042472 -0.932081 -0.275398 -0.235332 83 59 40 255 3
-0.199256 0.065868 0.043584 -0.934452 -0.290807 -0.205504 84 60 41 255 3
-0.199820 0.069155 0.044695 -0.936590 -0.297880 -0.184572 84 60 41 255 3
-0.201017 0.071772 0.044633 -0.950468 -0.275554 -0.143807 83 60 41 255 3
-0.202270 0.074327 0.044463 -0.953083 -0.275459 -0.125523 81 59 40 255 3
-0.203580 0.076821 0.044187 -0.953958 -0.275834 -0.117809 80 58 40 255 3
-0.204777 0.079438 0.044124 -0.961201 -0.259762 -0.092823 79 57 40 255 3
-0.203697 0.084535 0.048329 -0.984163 -0.162583 0.070634 78 57 40 255 3
-0.204158 0.087967 0.049652 -0.971567 -0.161069 0.173533 79 58 41 255 3
-0.202579 0.093647 0.054816 -0.963116 -0.147258 0.225215 81 59 42 255 3
-0.202934 0.097219 0.056352 -0.958233 -0.169827 0.230106 81 59 41 255 3
-0.203292 0.100797 0.057888 -0.956940 -0.175291 0.231385 81 61 44 255 3
-0.203935 0.104066 0.058890 -0.955310 -0.183935 0.231412 75 61 45 255 3
-0.087511 0.237999 0.281160 0.548680 0.346839 -0.760693 71 64 49 255 3
-0.305457 0.227039 -0.001578 0.283113 -0.884650 -0.370462 92 61 42 255 3
-0.308280 0.227276 -0.005029 0.233775 -0.867501 -0.439080 92 64 46 255 3
-0.311149 0.227429 -0.008585 0.174444 -0.859222 -0.480944 93 69 50 255 3
-0.313243 0.228673 -0.010551 0.127198 -0.837822 -0.530919 96 73 53 255 3
-0.315283 0.229985 -0.012412 0.055928 -0.808418 -0.585946 101 77 57 255 3
-0.317372 0.231218 -0.014377 -0.015335 -0.771511 -0.636031 103 78 57 255 3
-0.319407 0.232519 -0.016237 -0.069655 -0.746051 -0.662236 105 78 57 255 3
-0.321082 0.234333 -0.017354 -0.122507 -0.714227 -0.689109 107 79 58 255 3
-0.322807 0.236070 -0.018578 -0.177917 -0.676572 -0.714560 109 79 58 255 3
-0.324480 0.237878 -0.019695 -0.231113 -0.638815 -0.733827 109 80 59 255 3
-0.326201 0.239608 -0.020918 -0.275300 -0.608258 -0.744468 110 80 59 255 3
-0.327871 0.241410 -0.022035 -0.322181 -0.569421 -0.756279 110 80 58 255 3
-0.329286 0.243583 -0.022623 -0.368599 -0.525881 -0.766540 110 80 58 255 3
-0.330700 0.245755 -0.023210 -0.395076 -0.497187 -0.772476 111 81 59 255 3
-0.332064 0.248001 -0.023692 -0.427006 -0.464198 -0.776006 112 82 60 255 3
-0.333477 0.250170 -0.024279 -0.452624 -0.435202 -0.778287 111 82 59 255 3
-0.334840 0.252414 -0.024760 -0.471288 -0.403382 -0.784328 111 82 59 255 3
-0.336151 0.254732 -0.025136 -0.485931 -0.373574 -0.790135 111 82 59 255 3
-0.337312 0.257278 -0.025194 -0.501092 -0.341028 -0.795366 111 82 59 255 3
-0.338524 0.259747 -0.025358 -0.515815 -0.308988 -0.799038 110 80 58 255 3
-0.339785 0.262141 -0.025628 -0.533896 -0.272135 -0.800561 109 80 57 255 3
-0.340996 0.264610 -0.025791 -0.550813 -0.234129 -0.801117 108 79 57 255 3
-0.342108 0.267233 -0.025744 -0.573493 -0.194178 -0.795865 107 79 58 255 3
-0.343071 0.270086 -0.025379 -0.604283 -0.135249 -0.785207 106 78 57 255 3
-0.344034 0.272941 -0.025015 -0.637299 -0.062826 -0.768051 106 78 58 255 3
-0.344999 0.275798 -0.024650 -0.654136 -0.015538 -0.756217 105 76 56 255 3
-0.345668 0.279119 -0.023652 -0.679082 0.033638 -0.733291 104 74 54 255 3
-0.346289 0.282522 -0.022548 -0.712265 0.145994 -0.686560 103 73 53 255 3
-0.346616 0.286393 -0.020810 -0.732577 0.236042 -0.638447 102 71 51 255 3
-0.346553 0.290892 -0.018228 -0.739081 0.271151 -0.616633 98 68 49 255 3
-0.216288 0.501805 0.264424 0.023591 -0.049530 -0.998494 90 74 56 255 3
-0.127900 -0.209326 -0.014340 0.678797 -0.056144 -0.732177 109 83 63 255 3
-0.132211 -0.209068 -0.019683 0.634141 -0.052650 -0.771423 118 87 65 255 3
-0.134893 -0.207687 -0.022326 0.612838 -0.025682 -0.789791 117 86 64 255 3
-0.136536 -0.205582 -0.023243 0.594979 -0.005718 -0.803721 118 87 65 255 3
-0.138177 -0.203479 -0.024159 0.558256 0.024374 -0.829311 121 90 68 255 3
-0.139817 -0.201379 -0.025075 0.502287 0.056128 -0.862877 122 89 67 255 3
-0.141521 -0.199327 -0.026099 0.480529 0.078838 -0.873428 121 90 67 255 3
-0.143159 -0.197231 -0.027015 0.449372 0.111510 -0.886358 121 89 66 255 3
-0.144796 -0.195138 -0.027930 0.404296 0.141540 -0.903610 119 87 65 255 3
-0.146239 -0.192907 -0.028522 0.359747 0.174563 -0.916575 119 88 66 255 3
-0.147039 -0.190209 -0.028035 0.325797 0.201277 -0.923766 118 87 66 255 3
-0.147841 -0.187508 -0.027549 0.296396 0.234613 -0.925800 119 88 66 255 3
-0.148707 -0.184853 -0.027170 0.273612 0.257471 -0.926739 118 87 65 255 3
-0.149191 -0.181912 -0.026145 0.255102 0.291146 -0.922040 119 88 66 255 3
-0.149676 -0.178967 -0.025120 0.231291 0.329636 -0.915338 119 89 66 255 3
-0.150164 -0.176019 -0.024096 0.222424 0.353307 -0.908681 119 88 65 255 3
-0.150653 -0.173067 -0.023071 0.206235 0.384111 -0.899959 119 88 66 255 3
-0.150826 -0.169871 -0.021508 0.197249 0.396634 -0.896534 118 89 65 255 3
-0.151001 -0.166670 -0.019946 0.179570 0.400889 -0.898355 119 89 65 255 3
-0.151306 -0.163561 -0.018599 0.171367 0.400699 -0.900041 120 90 66 255 3
-0.151676 -0.160495 -0.017360 0.162196 0.398692 -0.902628 120 90 66 255 3
-0.152049 -0.157425 -0.016121 0.156265 0.398041 -0.903960 122 90 67 255 3
-0.152424 -0.154350 -0.014883 0.150358 0.401924 -0.903244 122 90 67 255 3
-0.152801 -0.151272 -0.013645 0.148948 0.412588 -0.898658 122 90 66 255 3
-0.153180 -0.148189 -0.012408 0.144013 0.424014 -0.894132 121 89 66 255 3
-0.153309 -0.144904 -0.010739 0.147798 0.438477 -0.886506 121 89 65 255 3
-0.153378 -0.141564 -0.008964 0.156738 0.447667 -0.880356 122 89 66 255 3
-0.153450 -0.138219 -0.007189 0.152906 0.450908 -0.879376 122 88 65 255 3
-0.153588 -0.134917 -0.005522 0.151739 0.444482 -0.882843 122 88 65 255 3
-0.153728 -0.131609 -0.003856 0.123366 0.415598 -0.901143 122 88 64 255 3
-0.153934 -0.128346 -0.002297 0.086238 0.380702 -0.920668 121 87 64 255 3
-0.154330 -0.125229 -0.001062 0.048176 0.339992 -0.939194 118 84 60 255 3
-0.154603 -0.122007 0.000389 0.005484 0.353653 -0.935361 117 82 59 255 3
-0.154816 -0.118728 0.001946 -0.052481 0.361630 -0.930844 109 75 53 255 3
-0.155032 -0.115445 0.003503 -0.070785 0.415515 -0.906828 100 67 46 255 3
-0.155251 -0.112156 0.005060 -0.015489 0.484186 -0.874828 90 58 37 255 3
-0.155658 -0.109016 0.006294 0.048045 0.538805 -0.841060 83 52 33 255 3
-0.156191 -0.105974 0.007312 0.107201 0.512479 -0.851982 75 49 31 255 3
-0.156602 -0.102825 0.008546 0.199223 0.475133 -0.857064 71 49 33 255 3
-0.156830 -0.099517 0.010101 0.202277 0.473620 -0.857186 74 56 41 255 3
-0.157061 -0.096203 0.011656 0.328618 0.597601 -0.731357 85 71 57 255 3
-0.157294 -0.092885 0.013211 -0.479304 -0.790695 0.380878 100 94 81 255 3
-0.167567 -0.098064 -0.002754 -0.668893 -0.315384 -0.673138 104 104 92 255 3
-0.167853 -0.094814 -0.001306 -0.710054 -0.321988 -0.626217 108 108 97 255 4
-0.167098 -0.090666 0.001969 -0.671505 -0.402753 -0.621990 110 110 98 255 4
-0.169231 -0.088983 0.000194 -0.518793 -0.006869 -0.854873 109 109 96 255 4
-0.170136 -0.086249 0.000567 -0.520216 -0.035752 -0.853286 109 109 97 255 4
-0.171043 -0.083513 0.000940 -0.539980 -0.022234 -0.841384 110 110 98 255 4
-0.172011 -0.080828 0.001205 -0.535267 -0.047575 -0.843342 115 114 102 255 4
-0.172918 -0.078089 0.001578 -0.560340 -0.042552 -0.827169 116 116 103 255 4
-0.173827 -0.075348 0.001951 -0.568367 -0.052469 -0.821101 107 107 94 255 4
-0.174736 -0.072606 0.002324 -0.583055 -0.055066 -0.810564 99 98 86 255 4
-0.175646 -0.069861 0.002696 -0.591024 -0.031615 -0.806034 95 94 84 255 4
-0.176011 -0.066630 0.004035 -0.608222 -0.050252 -0.792175 100 100 88 255 4
-0.176257 -0.063285 0.005588 -0.644485 -0.094374 -0.758770 104 104 92 255 4
-0.177111 -0.060478 0.006068 -0.688345 -0.162887 -0.706858 100 99 88 255 4
-0.178449 -0.058105 0.005688 -0.731051 -0.218476 -0.646400 94 93 82 255 4
-0.179847 -0.055788 0.005202 -0.760960 -0.265278 -0.592087 104 103 91 255 4
-0.181245 -0.053471 0.004715 -0.776988 -0.276912 -0.565340 106 104 92 255 4
-0.182582 -0.051100 0.004336 -0.795013 -0.276507 -0.539906 94 93 82 255 4
-0.183618 -0.048455 0.004493 -0.810536 -0.253138 -0.528160 84 83 73 255 4
-0.184174 -0.045366 0.005508 -0.832355 -0.233795 -0.502520 95 93 82 255 4
-0.184732 -0.042273 0.006523 -0.834928 -0.200156 -0.512672 97 96 85 255 4
-0.185292 -0.039176 0.007538 -0.846216 -0.202624 -0.492811 95 95 83 255 4
-0.185914 -0.036132 0.008446 -0.855871 -0.229138 -0.463660 93 92 81 255 4
-0.187313 -0.033812 0.007959 -0.864992 -0.262349 -0.427740 94 93 81 255 4
-0.188652 -0.031437 0.007579 -0.866725 -0.309162 -0.391416 95 95 83 255 4
-0.190051 -0.029119 0.007093 -0.857643 -0.369250 -0.357916 103 101 90 255 4
-0.191449 -0.026802 0.006606 -0.850098 -0.411590 -0.328523 89 88 77 255 4
-0.192787 -0.024429 0.006227 -0.854509 -0.420595 -0.304817 86 85 74 255 4
-0.193769 -0.021716 0.006490 -0.874897 -0.371896 -0.310239 89 87 77 255 4
-0.194751 -0.019002 0.006754 -0.903461 -0.265707 -0.336389 91 89 78 255 4
-0.196089 -0.016629 0.006375 -0.930155 -0.115414 -0.348557 89 87 76 255 4
-0.196305 -0.013169 0.008031 -0.940988 0.047443 -0.335097 90 89 78 255 4
-0.195639 -0.008840 0.011294 -0.914463 0.180778 -0.362045 90 88 78 255 4
-0.193741 -0.003292 0.016806 -0.847442 0.115587 -0.518152 89 88 77 255 4
-0.194910 -0.000730 0.016747 -0.735135 -0.066265 -0.674675 95 94 83 255 4
-0.196255 0.001658 0.016366 -0.660767 -0.122665 -0.740500 102 101 89 255 4
-0.197072 0.004568 0.016950 -0.552674 -0.223465 -0.802879 95 94 83 255 4
-0.197598 0.007772 0.018068 -0.447282 -0.271867 -0.852072 95 93 83 255 4
-0.199237 0.009869 0.017153 -0.383445 -0.299219 -0.873750 99 98 87 255 4
-0.200875 0.011964 0.016237 -0.445101 -0.199695 -0.872930 104 102 92 255 4
-0.202511 0.014057 0.015321 -0.511342 -0.134994 -0.848709 101 101 90 255 4
-0.204088 0.016206 0.014513 -0.593043 -0.081905 -0.800994 100 100 88 255 4
-0.201476 0.022610 0.021410 -0.767565 0.132229 -0.627184 99 99 87 255 4
-0.203696 0.024115 0.019424 -0.775030 0.173036 -0.607772 106 106 94 255 4
-0.204696 0.026863 0.019686 -0.819552 0.260850 -0.510188 103 104 91 255 4
-0.204131 0.031222 0.022836 -0.881753 0.334661 -0.332436 90 84 69 255 4
-0.201548 0.037683 0.029729 -0.914806 0.325197 -0.239534 84 65 48 255 4
-0.200534 0.042548 0.033733 -0.903143 0.402218 -0.150176 83 59 40 255 3
-0.195605 0.051513 0.045009 -0.959289 0.204371 -0.194929 84 60 41 255 3
-0.196741 0.054184 0.045054 -0.977338 0.105934 -0.183272 82 58 40 255 3
-0.197820 0.056917 0.045205 -0.980477 -0.042013 -0.192094 81 58 40 255 3
-0.198497 0.060075 0.046105 -0.954814 -0.226471 -0.192458 81 57 39 255 3
-0.199061 0.063358 0.047219 -0.948225 -0.275040 -0.158813 81 58 39 255 3
-0.199684 0.066584 0.048225 -0.958038 -0.266222 -0.106247 81 58 39 255 3
-0.200939 0.069141 0.048055 -0.962016 -0.254030 -0.099968 80 57 39 255 3
-0.202193 0.071698 0.047886 -0.960936 -0.259209 -0.097019 79 57 39 255 3
-0.203333 0.074378 0.047930 -0.963948 -0.253728 -0.080166 77 55 38 255 3
-0.203164 0.078476 0.050431 -0.981669 -0.182884 0.053657 76 56 39 255 3
-0.202771 0.082829 0.053360 -0.978101 -0.125129 0.166319 77 57 40 255 3
-0.200225 0.089545 0.060347 -0.960437 -0.135810 0.243139 77 56 39 255 3
-0.200582 0.093116 0.061885 -0.959050 -0.126734 0.253302 79 59 42 255 3
-0.200942 0.096692 0.063423 -0.954081 -0.150588 0.258945 78 59 43 255 3
-0.086516 0.226995 0.281770 -0.744041 -0.183064 0.642566 69 60 46 255 3
-0.307532 0.225870 -0.000181 0.274725 -0.895503 -0.350144 91 61 41 255 3
-0.310351 0.226108 -0.003636 0.215621 -0.870784 -0.441863 93 64 44 255 3
-0.313216 0.226262 -0.007196 0.158506 -0.861788 -0.481868 93 69 50 255 3
-0.315256 0.227579 -0.009059 0.109932 -0.839950 -0.531413 97 73 54 255 3
-0.317294 0.228891 -0.010921 0.041007 -0.807669 -0.588208 100 76 56 255 3
-0.319381 0.230123 -0.012889 -0.030167 -0.769535 -0.637891 103 78 57 255 3
-0.321362 0.231498 -0.014645 -0.080348 -0.743335 -0.664076 106 78 57 255 3
-0.323087 0.233238 -0.015869 -0.132962 -0.709441 -0.692109 107 79 57 255 3
-0.324760 0.235049 -0.016988 -0.189628 -0.669035 -0.718633 109 80 58 255 3
-0.326482 0.236782 -0.018213 -0.241158 -0.631338 -0.737058 109 80 58 255 3
-0.328151 0.238587 -0.019331 -0.283574 -0.600959 -0.747285 110 80 59 255 3
-0.329819 0.240388 -0.020449 -0.330653 -0.560856 -0.759019 110 80 58 255 3
-0.331183 0.242636 -0.020931 -0.374494 -0.519939 -0.767736 111 81 59 255 3
-0.332597 0.244807 -0.021519 -0.400740 -0.491038 -0.773491 112 81 59 255 3
-0.333960 0.247053 -0.022001 -0.426795 -0.460022 -0.778605 112 82 60 255 3
-0.335372 0.249222 -0.022589 -0.445487 -0.431261 -0.784573 112 82 60 255 3
-0.336734 0.251465 -0.023070 -0.461809 -0.402539 -0.790376 112 82 59 255 3
-0.338045 0.253783 -0.023446 -0.472786 -0.372644 -0.798505 111 82 59 255 3
-0.339256 0.256252 -0.023610 -0.488055 -0.340753 -0.803548 110 81 58 255 3
-0.340467 0.258721 -0.023774 -0.502743 -0.307995 -0.807706 110 81 58 255 3
-0.341678 0.261190 -0.023938 -0.520722 -0.269708 -0.810004 109 80 57 255 3
-0.342889 0.263659 -0.024102 -0.539423 -0.229241 -0.810229 109 80 58 255 3
-0.344001 0.266281 -0.024054 -0.565117 -0.186415 -0.803674 108 80 58 255 3
-0.344964 0.269134 -0.023689 -0.595615 -0.123863 -0.793663 107 79 57 255 3
-0.345928 0.271988 -0.023323 -0.627935 -0.051088 -0.776587 106 77 57 255 3
-0.346893 0.274844 -0.022958 -0.644400 -0.000307 -0.764688 105 77 56 255 3
-0.347514 0.278241 -0.021852 -0.668872 0.050554 -0.741656 104 74 54 255 3
-0.348136 0.281643 -0.020747 -0.708143 0.163496 -0.686879 103 73 53 255 3
-0.348367 0.285668 -0.018795 -0.720258 0.241993 -0.650129 99 70 50 255 3
-0.348111 0.290477 -0.015786 -0.726312 0.284665 -0.625648 96 66 48 255 3
-0.219433 0.499238 0.264476 0.023591 -0.049530 -0.998494 86 75 57 255 3
-0.128141 -0.215540 -0.013550 0.683574 -0.096813 -0.723432 106 83 64 255 3
-0.131998 -0.214951 -0.018143 0.657628 -0.087221 -0.748276 115 83 62 255 3
-0.135784 -0.214330 -0.022627 0.635946 -0.079742 -0.767603 115 83 60 255 3
-0.137749 -0.212453 -0.024085 0.605101 -0.052979 -0.794384 116 83 61 255 3
-0.139647 -0.210534 -0.025434 0.582891 -0.024032 -0.812195 118 85 63 255 3
-0.141479 -0.208574 -0.026675 0.533224 0.011776 -0.845892 119 87 65 255 3
-0.143244 -0.206571 -0.027808 0.493043 0.045926 -0.868792 118 87 65 255 3
-0.144880 -0.204479 -0.028724 0.466190 0.066131 -0.882209 119 88 66 255 3
-0.146514 -0.202389 -0.029640 0.435006 0.102984 -0.894519 118 88 65 255 3
-0.148082 -0.200255 -0.030448 0.385786 0.137660 -0.912260 118 87 65 255 3
-0.148944 -0.197612 -0.030068 0.356651 0.160771 -0.920301 117 87 65 255 3
-0.149742 -0.194920 -0.029581 0.313208 0.189884 -0.930508 118 87 66 255 3
-0.150605 -0.192274 -0.029201 0.296077 0.212049 -0.931329 117 87 66 255 3
-0.151404 -0.189578 -0.028713 0.274144 0.229826 -0.933823 117 87 66 255 3
-0.152205 -0.186881 -0.028226 0.241778 0.254165 -0.936453 118 88 66 255 3
-0.153071 -0.184229 -0.027847 0.219745 0.283926 -0.933326 119 88 66 255 3
-0.153682 -0.181386 -0.027036 0.206634 0.313515 -0.926828 120 89 67 255 3
-0.154168 -0.178444 -0.026009 0.195213 0.345803 -0.917776 119 88 66 255 3
-0.154655 -0.175498 -0.024983 0.184954 0.377739 -0.907251 118 88 65 255 3
-0.154891 -0.172357 -0.023525 0.176458 0.402564 -0.898223 117 87 65 255 3
-0.155128 -0.169211 -0.022068 0.163112 0.412003 -0.896464 119 89 66 255 3
-0.155305 -0.166012 -0.020503 0.149410 0.416156 -0.896934 119 88 65 255 3
-0.155548 -0.162856 -0.019046 0.138932 0.413225 -0.899968 119 88 65 255 3
-0.155919 -0.159792 -0.017805 0.123997 0.406295 -0.905289 120 89 66 255 3
-0.156293 -0.156724 -0.016565 0.118060 0.403999 -0.907109 121 90 67 255 3
-0.156668 -0.153651 -0.015325 0.105629 0.405701 -0.907882 122 90 67 255 3
-0.157046 -0.150575 -0.014085 0.100684 0.414356 -0.904529 122 89 66 255 3
-0.157426 -0.147494 -0.012846 0.102090 0.423705 -0.900029 121 88 66 255 3
-0.157620 -0.144260 -0.011283 0.104540 0.436067 -0.893822 122 89 66 255 3
-0.157753 -0.140971 -0.009613 0.108159 0.445936 -0.888506 123 89 66 255 3
-0.157890 -0.137677 -0.007943 0.112620 0.450468 -0.885661 122 88 65 255 3
-0.158029 -0.134377 -0.006274 0.113419 0.447326 -0.887150 122 88 65 255 3
-0.158171 -0.131072 -0.004605 0.112045 0.440775 -0.890597 122 88 65 255 3
-0.158315 -0.127761 -0.002937 0.107398 0.434702 -0.894148 120 86 63 255 3
-0.158587 -0.124545 -0.001484 0.100550 0.430612 -0.896919 121 86 63 255 3
-0.158799 -0.121273 0.000076 0.000889 0.406282 -0.913747 117 83 61 255 3
-0.159014 -0.117997 0.001636 -0.026906 0.385982 -0.922114 114 82 59 255 3
-0.159232 -0.114715 0.003195 -0.068100 0.379564 -0.922656 105 75 52 255 3
-0.159452 -0.111427 0.004754 0.015978 0.394796 -0.918630 98 67 44 255 3
-0.159736 -0.108186 0.006205 0.050768 0.460583 -0.886164 87 58 37 255 3
-0.159961 -0.104888 0.007764 0.139462 0.463140 -0.875244 78 53 33 255 3
-0.160250 -0.101637 0.009214 0.156071 0.487598 -0.859005 72 50 32 255 3
-0.160481 -0.098329 0.010772 0.144822 0.483989 -0.863007 66 47 31 255 3
-0.160713 -0.095015 0.012329 0.308445 0.624887 -0.717201 73 57 42 255 3
-0.160949 -0.091696 0.013886 -0.468907 -0.877772 0.098197 93 81 67 255 3
-0.161187 -0.088372 0.015442 -0.588065 -0.759822 -0.277220 107 104 91 255 3
-0.171296 -0.093487 -0.000324 -0.669505 -0.319961 -0.670364 107 109 97 255 4
-0.171159 -0.089864 0.001879 -0.638634 -0.336813 -0.691884 107 108 96 255 4
-0.171392 -0.086549 0.003436 -0.596793 -0.174150 -0.783269 106 106 94 255 4
-0.173155 -0.084553 0.002304 -0.538894 -0.023263 -0.842052 108 108 95 255 4
-0.174062 -0.081817 0.002678 -0.547585 -0.039040 -0.835839 110 109 97 255 4
-0.174969 -0.079079 0.003051 -0.558206 -0.013587 -0.829591 111 110 97 255 4
-0.175878 -0.076339 0.003425 -0.544448 -0.037224 -0.837968 103 103 91 255 4
-0.176788 -0.073597 0.003798 -0.553366 -0.044328 -0.831758 98 97 86 255 4
-0.177698 -0.070854 0.004172 -0.575673 -0.037346 -0.816826 94 93 82 255 4
-0.178670 -0.068163 0.004437 -0.584320 -0.008492 -0.811479 100 99 88 255 4
-0.179037 -0.064930 0.005778 -0.592912 0.006088 -0.805244 102 102 90 255 4
-0.179286 -0.061584 0.007333 -0.600745 -0.035922 -0.798633 104 103 91 255 4
-0.179658 -0.058341 0.008673 -0.660581 -0.096948 -0.744469 95 94 83 255 4
-0.180997 -0.055967 0.008293 -0.699850 -0.146195 -0.699169 105 104 92 255 4
-0.182395 -0.053649 0.007806 -0.738089 -0.190218 -0.647334 108 107 95 255 4
-0.183732 -0.051276 0.007426 -0.758121 -0.212186 -0.616627 98 97 85 255 4
-0.185130 -0.048960 0.006939 -0.779197 -0.215124 -0.588704 91 90 79 255 4
-0.186047 -0.046202 0.007311 -0.800819 -0.205887 -0.562404 99 97 86 255 4
-0.186606 -0.043110 0.008328 -0.815440 -0.176415 -0.551304 96 95 84 255 4
-0.187167 -0.040015 0.009344 -0.824113 -0.165014 -0.541857 90 90 79 255 4
-0.187730 -0.036915 0.010361 -0.841602 -0.169107 -0.512941 89 89 78 255 4
-0.188295 -0.033813 0.011376 -0.861028 -0.207556 -0.464276 91 90 79 255 4
-0.189278 -0.031099 0.011641 -0.868912 -0.271077 -0.414136 98 98 86 255 4
-0.190677 -0.028777 0.011153 -0.870115 -0.314068 -0.379817 99 98 86 255 4
-0.192077 -0.026457 0.010666 -0.870980 -0.373468 -0.319241 91 90 79 255 4
-0.193416 -0.024081 0.010286 -0.870389 -0.391027 -0.299200 89 87 77 255 4
-0.194814 -0.021762 0.009799 -0.882339 -0.378410 -0.279793 89 88 77 255 4
-0.196212 -0.019445 0.009312 -0.918589 -0.280711 -0.278199 86 84 74 255 4
-0.197314 -0.016843 0.009361 -0.947443 -0.152556 -0.281210 87 85 75 255 4
-0.198004 -0.013839 0.010162 -0.960833 -0.002741 -0.277113 93 92 81 255 4
-0.196105 -0.008307 0.015682 -0.914672 0.136442 -0.380472 91 90 79 255 4
-0.195567 -0.004081 0.018733 -0.779945 -0.030109 -0.625123 90 89 78 255 4
-0.196854 -0.001636 0.018460 -0.679572 -0.146767 -0.718777 98 98 86 255 4
-0.198199 0.000752 0.018079 -0.547832 -0.247397 -0.799172 100 99 88 255 4
-0.198373 0.004300 0.019843 -0.473619 -0.292799 -0.830635 93 92 82 255 4
-0.199953 0.006457 0.019034 -0.406650 -0.321361 -0.855198 91 90 80 255 4
-0.201590 0.008553 0.018117 -0.407181 -0.300441 -0.862519 98 97 86 255 4
-0.203168 0.010705 0.017308 -0.526085 -0.184868 -0.830095 99 97 87 255 4
-0.204803 0.012796 0.016391 -0.590665 -0.106982 -0.799794 98 97 86 255 4
-0.206262 0.015062 0.015797 -0.665722 0.001839 -0.746198 96 95 84 255 4
-0.204296 0.020812 0.021524 -0.732606 0.096257 -0.673812 99 98 87 255 4
-0.206107 0.022730 0.020286 -0.790133 0.177184 -0.586767 102 103 90 255 4
-0.205948 0.026664 0.022691 -0.881084 0.304093 -0.362240 93 93 81 255 4
-0.202844 0.033643 0.030558 -0.911552 0.332110 -0.242439 87 75 60 255 4
-0.202928 0.037363 0.032533 -0.917135 0.350172 -0.190376 81 59 41 255 3
-0.200709 0.043484 0.038791 -0.914948 0.365216 -0.171722 81 57 38 255 3
-0.196888 0.051307 0.048047 -0.965181 0.199799 -0.168839 81 57 39 255 3
-0.197508 0.054522 0.049055 -0.989189 0.080734 -0.122420 80 56 39 255 3
-0.198244 0.057620 0.049849 -0.987456 -0.108426 -0.114783 80 56 38 255 3
-0.198810 0.060903 0.050965 -0.971888 -0.216487 -0.092562 79 56 38 255 3
-0.199549 0.064007 0.051758 -0.966266 -0.247361 -0.071711 78 56 38 255 3
-0.200804 0.066566 0.051588 -0.966217 -0.245775 -0.077579 77 55 37 255 3
-0.201889 0.069309 0.051739 -0.968820 -0.239752 -0.062501 78 56 39 255 3
-0.201890 0.073216 0.053924 -0.983709 -0.170847 0.055920 77 55 37 255 3
-0.201554 0.077498 0.056750 -0.978144 -0.112716 0.174727 79 57 39 255 3
-0.197869 0.085421 0.065888 -0.960659 -0.113008 0.253699 79 58 40 255 3
-0.198227 0.088990 0.067428 -0.957302 -0.111886 0.266560 77 59 42 255 3
-0.085527 0.216015 0.282373 -0.777337 -0.134718 0.614490 70 59 44 255 3
-0.309606 0.224702 0.001215 0.271582 -0.903793 -0.330759 89 61 42 255 3
-0.312472 0.224867 -0.002351 0.199037 -0.873450 -0.444376 94 64 44 255 3
-0.315281 0.225095 -0.005809 0.149527 -0.863426 -0.481806 93 69 50 255 3
-0.317268 0.226485 -0.007568 0.094437 -0.841464 -0.531996 97 73 53 255 3
-0.319304 0.227797 -0.009432 0.027431 -0.806985 -0.589935 100 75 54 255 3
-0.321388 0.229029 -0.011402 -0.041044 -0.767789 -0.639387 103 77 55 255 3
-0.323368 0.230404 -0.013160 -0.088649 -0.740703 -0.665959 107 78 57 255 3
-0.325091 0.232143 -0.014386 -0.142561 -0.704916 -0.694816 107 77 56 255 3
-0.326762 0.233954 -0.015506 -0.198830 -0.663002 -0.721730 109 79 57 255 3
-0.328482 0.235687 -0.016731 -0.249979 -0.623240 -0.741001 110 81 59 255 3
-0.330151 0.237491 -0.017851 -0.289558 -0.592966 -0.751364 110 81 59 255 3
-0.331767 0.239367 -0.018864 -0.338945 -0.552376 -0.761575 110 81 58 255 3
-0.333130 0.241614 -0.019346 -0.378879 -0.512752 -0.770413 111 81 58 255 3
-0.334493 0.243860 -0.019829 -0.402529 -0.483519 -0.777290 111 81 59 255 3
-0.335905 0.246030 -0.020417 -0.422447 -0.457788 -0.782284 112 82 59 255 3
-0.337267 0.248274 -0.020899 -0.435906 -0.430560 -0.790319 112 83 60 255 3
-0.338678 0.250441 -0.021488 -0.448088 -0.401005 -0.799007 112 83 60 255 3
-0.339989 0.252759 -0.021863 -0.458653 -0.372496 -0.806774 112 83 60 255 3
-0.341199 0.255227 -0.022027 -0.473446 -0.340794 -0.812224 110 81 58 255 3
-0.342410 0.257696 -0.022191 -0.485707 -0.307425 -0.818278 110 81 58 255 3
-0.343621 0.260164 -0.022355 -0.506153 -0.265955 -0.820413 110 80 58 255 3
-0.344831 0.262632 -0.022519 -0.527728 -0.223328 -0.819529 109 79 57 255 3
-0.345893 0.265330 -0.022365 -0.553427 -0.178713 -0.813499 107 79 57 255 3
-0.346857 0.268182 -0.021999 -0.588528 -0.106973 -0.801368 106 78 57 255 3
-0.347821 0.271035 -0.021633 -0.615524 -0.040589 -0.787072 106 77 56 255 3
-0.348787 0.273890 -0.021267 -0.635675 0.013621 -0.771836 106 77 57 255 3
-0.349408 0.277287 -0.020159 -0.655728 0.065788 -0.752126 105 75 55 255 3
-0.350032 0.280687 -0.019052 -0.694934 0.184731 -0.694940 103 73 54 255 3
-0.350216 0.284789 -0.016992 -0.714642 0.232428 -0.659746 99 71 52 255 3
-0.349865 0.289750 -0.013767 -0.716340 0.295564 -0.632060 97 67 50 255 3
-0.222572 0.496672 0.264521 0.023591 -0.049530 -0.998494 84 76 58 255 3
-0.131136 -0.220382 -0.015523 0.667979 -0.127558 -0.733166 110 87 65 255 3
-0.134989 -0.219790 -0.020121 0.657382 -0.121129 -0.743758 115 86 63 255 3
-0.138575 -0.219032 -0.024286 0.637384 -0.107598 -0.762997 117 85 62 255 3
-0.140407 -0.217068 -0.025529 0.599583 -0.064168 -0.797736 118 84 61 255 3
-0.142238 -0.215108 -0.026771 0.572221 -0.042425 -0.819002 120 85 62 255 3
-0.144067 -0.213150 -0.028013 0.529716 -0.006272 -0.848152 120 86 63 255 3
-0.145894 -0.211196 -0.029255 0.485056 0.020446 -0.874244 121 88 65 255 3
-0.147719 -0.209245 -0.030497 0.463781 0.039819 -0.885055 119 86 64 255 3
-0.149543 -0.207298 -0.031738 0.422462 0.077493 -0.903062 117 86 64 255 3
-0.150916 -0.205031 -0.032222 0.389408 0.109554 -0.914527 117 87 65 255 3
-0.151710 -0.202348 -0.031733 0.357309 0.145630 -0.922563 119 88 66 255 3
-0.152442 -0.199618 -0.031136 0.323214 0.181754 -0.928708 117 87 65 255 3
-0.153302 -0.196978 -0.030755 0.295769 0.200760 -0.933925 117 87 65 255 3
-0.154099 -0.194289 -0.030266 0.265980 0.218265 -0.938944 118 88 66 255 3
-0.154897 -0.191599 -0.029777 0.244586 0.238226 -0.939907 118 88 66 255 3
-0.155761 -0.188954 -0.029397 0.218312 0.255021 -0.941968 117 87 65 255 3
-0.156561 -0.186259 -0.028908 0.201319 0.275738 -0.939914 119 88 66 255 3
-0.157425 -0.183611 -0.028528 0.189121 0.296335 -0.936172 118 88 66 255 3
-0.158164 -0.180865 -0.027932 0.177057 0.325997 -0.928642 118 88 66 255 3
-0.158650 -0.177926 -0.026904 0.163370 0.361292 -0.918030 119 88 66 255 3
-0.158947 -0.174839 -0.025552 0.149615 0.389945 -0.908602 118 88 66 255 3
-0.159184 -0.171700 -0.024092 0.136010 0.415717 -0.899267 118 86 64 255 3
-0.159359 -0.168508 -0.022525 0.121824 0.428610 -0.895238 119 88 66 255 3
-0.159601 -0.165359 -0.021065 0.109122 0.429757 -0.896327 120 88 66 255 3
-0.159781 -0.162156 -0.019499 0.091928 0.425700 -0.900183 119 88 66 255 3
-0.160154 -0.159094 -0.018256 0.080490 0.417846 -0.904945 119 88 66 255 3
-0.160528 -0.156028 -0.017014 0.070434 0.412309 -0.908317 120 88 66 255 3
-0.160905 -0.152957 -0.015772 0.059053 0.411059 -0.909694 121 88 66 255 3
-0.161158 -0.149784 -0.014315 0.054826 0.414688 -0.908311 120 86 65 255 3
-0.161413 -0.146606 -0.012857 0.055043 0.425983 -0.903055 120 86 65 255 3
-0.161609 -0.143373 -0.011293 0.057216 0.437116 -0.897583 119 86 64 255 3
-0.161744 -0.140085 -0.009620 0.061437 0.445153 -0.893345 120 87 65 255 3
-0.161820 -0.136742 -0.007841 0.068046 0.447440 -0.891721 121 87 65 255 3
-0.161962 -0.133443 -0.006169 0.068443 0.446263 -0.892281 120 86 64 255 3
-0.162106 -0.130138 -0.004498 0.067721 0.444162 -0.893383 122 86 64 255 3
-0.162252 -0.126827 -0.002827 0.058912 0.435538 -0.898241 121 86 64 255 3
-0.162464 -0.123562 -0.001264 0.051823 0.433098 -0.899856 119 85 63 255 3
-0.162678 -0.120291 0.000298 0.041623 0.430796 -0.901489 119 86 64 255 3
-0.162895 -0.117015 0.001860 0.034437 0.430780 -0.901800 116 85 62 255 3
-0.163052 -0.113682 0.003529 0.009319 0.399967 -0.916482 111 80 57 255 3
-0.163274 -0.110396 0.005090 -0.013953 0.401287 -0.915846 104 73 49 255 3
-0.163499 -0.107103 0.006651 -0.046778 0.428590 -0.902287 96 65 43 255 3
-0.163726 -0.103806 0.008211 -0.001026 0.447143 -0.894462 87 59 38 255 3
-0.163894 -0.100451 0.009879 0.001591 0.431174 -0.902268 78 53 34 255 3
-0.164127 -0.097143 0.011439 -0.013982 0.471510 -0.881750 70 48 31 255 3
-0.164362 -0.093830 0.012998 0.010776 0.540974 -0.840971 70 50 34 255 3
-0.164599 -0.090511 0.014558 -0.544349 -0.789255 -0.284185 84 68 54 255 3
-0.164840 -0.087187 0.016116 -0.530072 -0.776140 -0.341512 104 98 84 255 3
-0.174797 -0.092215 0.000547 -0.625902 -0.318029 -0.712112 112 111 99 255 4
-0.174603 -0.088538 0.002861 -0.628441 -0.310603 -0.713154 112 111 99 255 4
-0.174473 -0.084906 0.005066 -0.580972 -0.107309 -0.806818 114 113 101 255 4
-0.175746 -0.082487 0.004795 -0.581488 -0.015759 -0.813402 107 107 95 255 4
-0.177019 -0.080068 0.004523 -0.584103 -0.041989 -0.810593 106 105 93 255 4
-0.177928 -0.077329 0.004897 -0.560164 -0.055796 -0.826500 106 106 93 255 4
-0.178899 -0.074642 0.005164 -0.549987 -0.040562 -0.834187 102 101 90 255 4
-0.179809 -0.071900 0.005538 -0.564434 -0.021191 -0.825206 103 102 90 255 4
-0.180720 -0.069157 0.005912 -0.570624 -0.003713 -0.821203 99 98 86 255 4
-0.181632 -0.066412 0.006285 -0.586087 -0.012746 -0.810148 94 93 82 255 4
-0.182063 -0.063231 0.007520 -0.579418 0.026497 -0.814600 95 94 83 255 4
-0.182315 -0.059883 0.009077 -0.584903 0.009467 -0.811048 90 89 78 255 4
-0.182570 -0.056530 0.010634 -0.618477 -0.028018 -0.785303 100 99 87 255 4
-0.183547 -0.053827 0.010899 -0.665498 -0.095301 -0.740291 97 96 85 255 4
-0.184885 -0.051453 0.010519 -0.711630 -0.125090 -0.691328 99 97 85 255 4
-0.186283 -0.049135 0.010032 -0.743899 -0.156268 -0.649765 96 95 84 255 4
-0.187621 -0.046762 0.009652 -0.756046 -0.146905 -0.637819 99 98 86 255 4
-0.188480 -0.043947 0.010132 -0.779558 -0.139219 -0.610661 90 89 79 255 4
-0.189042 -0.040853 0.011150 -0.794503 -0.121721 -0.594936 89 89 78 255 4
-0.189606 -0.037754 0.012168 -0.809068 -0.117903 -0.575767 94 94 83 255 4
-0.190172 -0.034652 0.013185 -0.829686 -0.128293 -0.543288 91 90 79 255 4
-0.190739 -0.031547 0.014202 -0.855834 -0.171487 -0.487996 90 90 78 255 4
-0.191309 -0.028437 0.015219 -0.868011 -0.234473 -0.437698 92 91 80 255 4
-0.192709 -0.026114 0.014731 -0.876737 -0.299466 -0.376367 90 89 78 255 4
-0.194109 -0.023791 0.014244 -0.883092 -0.343431 -0.319692 88 87 76 255 4
-0.195449 -0.021413 0.013863 -0.894428 -0.340618 -0.289790 88 87 76 255 4
-0.196848 -0.019092 0.013376 -0.934864 -0.238017 -0.263396 87 85 75 255 4
-0.198247 -0.016772 0.012888 -0.949954 -0.201330 -0.238858 87 86 75 255 4
-0.198468 -0.013309 0.014549 -0.963034 -0.012783 -0.269075 96 95 83 255 4
-0.196577 -0.007775 0.020075 -0.827718 -0.019798 -0.560794 92 91 80 255 4
-0.197511 -0.004986 0.020446 -0.715054 -0.122088 -0.688326 89 87 76 255 4
-0.198797 -0.002541 0.020173 -0.642404 -0.221149 -0.733765 91 89 79 255 4
-0.200084 -0.000096 0.019899 -0.545963 -0.292439 -0.785114 94 93 82 255 4
-0.200668 0.003045 0.020914 -0.494462 -0.348859 -0.796119 95 94 83 255 4
-0.202305 0.005142 0.019996 -0.445420 -0.362984 -0.818440 91 90 80 255 4
-0.203882 0.007295 0.019186 -0.511265 -0.275535 -0.814057 103 102 91 255 4
-0.205517 0.009388 0.018269 -0.565946 -0.200457 -0.799701 96 95 85 255 4
-0.207150 0.011478 0.017352 -0.619966 -0.133876 -0.773123 96 94 83 255 4
-0.204489 0.017921 0.024375 -0.724956 0.086215 -0.683379 92 91 80 255 4
-0.206937 0.019193 0.021955 -0.749015 0.120474 -0.651508 92 90 80 255 4
-0.207762 0.022115 0.022540 -0.844879 0.280040 -0.455804 89 88 76 255 4
-0.203793 0.029965 0.032027 -0.914327 0.350630 -0.202642 78 76 65 255 4
-0.204223 0.033322 0.033362 -0.915982 0.350128 -0.195928 80 64 48 255 4
-0.203158 0.038235 0.037484 -0.907470 0.401653 -0.123182 79 56 38 255 3
-0.200891 0.044418 0.043857 -0.933493 0.336282 -0.124521 78 55 37 255 3
-0.202138 0.046960 0.043688 -0.933684 0.327367 -0.145136 80 55 38 255 3
-0.197878 0.055280 0.053812 -0.996896 0.071234 -0.033517 78 54 37 255 3
-0.198617 0.058382 0.054607 -0.996444 -0.083714 -0.009597 76 53 36 255 3
-0.199472 0.061365 0.055188 -0.965857 -0.257022 -0.032563 76 55 38 255 3
-0.200443 0.064230 0.055553 -0.968766 -0.247374 -0.017264 75 55 38 255 3
-0.200444 0.068130 0.057741 -0.983285 -0.166433 0.073833 75 54 37 255 3
-0.200392 0.072099 0.060036 -0.978232 -0.100994 0.181279 77 56 39 255 3
-0.196078 0.080663 0.070366 -0.960674 -0.091693 0.262103 79 58 40 255 3
-0.195927 0.084782 0.072872 -0.956423 -0.097834 0.275106 76 58 42 255 3
-0.085974 0.207973 0.282776 -0.777337 -0.134718 0.614490 68 59 43 255 3
-0.311730 0.223462 0.002502 0.269240 -0.910335 -0.314325 89 62 43 255 3
-0.314540 0.223700 -0.000961 0.211213 -0.887657 -0.409211 95 65 46 255 3
-0.317346 0.223928 -0.004424 0.139716 -0.863442 -0.484713 95 69 50 255 3
-0.319280 0.225391 -0.006078 0.084187 -0.840179 -0.535734 98 72 53 255 3
-0.321313 0.226703 -0.007944 0.017668 -0.805873 -0.591824 101 75 55 255 3
-0.323395 0.227936 -0.009917 -0.048534 -0.765640 -0.641435 104 77 56 255 3
-0.325372 0.229310 -0.011676 -0.095664 -0.738016 -0.667967 106 78 56 255 3
-0.327094 0.231049 -0.012904 -0.150456 -0.700021 -0.698093 108 78 57 255 3
-0.328763 0.232859 -0.014025 -0.208166 -0.657347 -0.724267 109 79 58 255 3
-0.330432 0.234666 -0.015145 -0.258499 -0.617379 -0.742982 111 82 60 255 3
-0.332098 0.236470 -0.016266 -0.299169 -0.584849 -0.753956 110 81 59 255 3
-0.333663 0.238420 -0.017174 -0.344383 -0.544305 -0.764939 111 81 59 255 3
-0.335076 0.240592 -0.017763 -0.380933 -0.507618 -0.772796 111 81 59 255 3
-0.336438 0.242838 -0.018246 -0.398372 -0.480888 -0.781055 111 81 59 255 3
-0.337850 0.245008 -0.018834 -0.412522 -0.457650 -0.787644 114 83 60 255 3
-0.339211 0.247251 -0.019317 -0.423069 -0.433419 -0.795714 113 83 60 255 3
-0.340621 0.249418 -0.019906 -0.433877 -0.403025 -0.805805 113 83 60 255 3
-0.341931 0.251735 -0.020282 -0.449064 -0.368678 -0.813891 113 83 60 255 3
-0.343191 0.254127 -0.020552 -0.458394 -0.339476 -0.821359 112 82 59 255 3
-0.344401 0.256594 -0.020716 -0.471799 -0.306145 -0.826850 111 81 59 255 3
-0.345612 0.259062 -0.020879 -0.494283 -0.262780 -0.828632 109 80 58 255 3
-0.346822 0.261529 -0.021043 -0.515836 -0.218287 -0.828411 108 79 58 255 3
-0.347884 0.264226 -0.020889 -0.539768 -0.171188 -0.824224 108 79 58 255 3
-0.348848 0.267077 -0.020522 -0.568929 -0.105522 -0.815588 107 78 57 255 3
-0.349812 0.269929 -0.020155 -0.601667 -0.032397 -0.798089 106 77 56 255 3
-0.350778 0.272783 -0.019788 -0.622454 0.023127 -0.782314 107 77 57 255 3
-0.351400 0.276178 -0.018679 -0.641963 0.079978 -0.762553 104 75 55 255 3
-0.352025 0.279577 -0.017570 -0.681248 0.204675 -0.702858 104 74 55 255 3
-0.352211 0.283677 -0.015507 -0.704228 0.251812 -0.663817 97 71 53 255 3
-0.351766 0.288791 -0.012066 -0.711443 0.305971 -0.632638 96 69 51 255 3
-0.129884 -0.225550 -0.012251 0.676613 -0.143262 -0.722268 93 80 62 255 3
-0.133999 -0.225119 -0.017290 0.664840 -0.146996 -0.732380 110 83 63 255 3
-0.137976 -0.224613 -0.022111 0.654662 -0.147954 -0.741301 115 86 64 255 3
-0.141170 -0.223585 -0.025631 0.630352 -0.117871 -0.767309 115 84 62 255 3
-0.142999 -0.221625 -0.026874 0.590230 -0.082960 -0.802961 119 86 63 255 3
-0.144826 -0.219667 -0.028118 0.562396 -0.064740 -0.824330 120 84 61 255 3
-0.146717 -0.217758 -0.029469 0.516808 -0.027555 -0.855658 120 85 62 255 3
-0.148541 -0.215807 -0.030712 0.480814 -0.007080 -0.876794 119 85 62 255 3
-0.150428 -0.213905 -0.032063 0.452943 0.017430 -0.891369 119 85 62 255 3
-0.152249 -0.211961 -0.033305 0.411842 0.049989 -0.909883 118 85 63 255 3
-0.153426 -0.209562 -0.033465 0.389699 0.081830 -0.917300 117 85 63 255 3
-0.154539 -0.207116 -0.033516 0.352884 0.119644 -0.927986 117 86 64 255 3
-0.155587 -0.204624 -0.033458 0.324315 0.156744 -0.932873 117 87 64 255 3
-0.156509 -0.202038 -0.033185 0.290974 0.194460 -0.936760 117 87 64 255 3
-0.157239 -0.199311 -0.032586 0.269435 0.213311 -0.939097 117 87 65 255 3
-0.157970 -0.196582 -0.031988 0.246579 0.233925 -0.940467 118 88 66 255 3
-0.158703 -0.193851 -0.031390 0.216905 0.257417 -0.941642 117 87 65 255 3
-0.159436 -0.191117 -0.030792 0.207515 0.264527 -0.941787 118 87 65 255 3
-0.160235 -0.188428 -0.030303 0.183047 0.280707 -0.942177 118 87 65 255 3
-0.160970 -0.185690 -0.029705 0.164645 0.299254 -0.939861 118 87 65 255 3
-0.161707 -0.182950 -0.029107 0.145146 0.323586 -0.935000 119 88 66 255 3
-0.162572 -0.180302 -0.028726 0.121432 0.352070 -0.928063 119 87 65 255 3
-0.162995 -0.177318 -0.027588 0.098000 0.381851 -0.919014 119 87 65 255 3
-0.163230 -0.174186 -0.026126 0.086055 0.410284 -0.907889 119 86 65 255 3
-0.163342 -0.170952 -0.024448 0.079580 0.433841 -0.897468 119 86 65 255 3
-0.163456 -0.167713 -0.022770 0.069154 0.443913 -0.893398 118 86 65 255 3
-0.163636 -0.164516 -0.021201 0.058785 0.440731 -0.895712 117 86 64 255 3
-0.163692 -0.161217 -0.019416 0.049019 0.430461 -0.901277 118 86 66 255 3
-0.163940 -0.158059 -0.017956 0.037408 0.421178 -0.906206 117 86 65 255 3
-0.164191 -0.154895 -0.016495 0.026524 0.414399 -0.909709 118 86 65 255 3
-0.164444 -0.151727 -0.015036 0.019331 0.413213 -0.910429 119 86 65 255 3
-0.164699 -0.148554 -0.013576 0.011316 0.417831 -0.908454 119 86 65 255 3
-0.165019 -0.145425 -0.012225 0.005340 0.425415 -0.904983 119 86 65 255 3
-0.165217 -0.142192 -0.010658 0.004614 0.435561 -0.900147 119 86 65 255 3
-0.165355 -0.138904 -0.008984 0.005328 0.442823 -0.896593 119 87 65 255 3
-0.165434 -0.135560 -0.007202 0.009590 0.449443 -0.893258 120 86 64 255 3
-0.165577 -0.132261 -0.005528 0.006335 0.448430 -0.893795 121 86 64 255 3
-0.165786 -0.129006 -0.003962 0.000680 0.445467 -0.895298 120 86 64 255 3
-0.165997 -0.125746 -0.002397 -0.007623 0.443942 -0.896023 120 86 64 255 3
-0.166211 -0.122481 -0.000833 -0.017647 0.443748 -0.895978 119 85 63 255 3
-0.166365 -0.119160 0.000840 -0.028967 0.443869 -0.895623 117 84 62 255 3
-0.166584 -0.115884 0.002404 -0.039896 0.443298 -0.895486 115 83 61 255 3
-0.166805 -0.112602 0.003967 -0.080796 0.399611 -0.913117 112 81 57 255 3
-0.167030 -0.109316 0.005531 -0.096923 0.412216 -0.905916 110 77 54 255 3
-0.167256 -0.106024 0.007094 -0.157704 0.387715 -0.908189 102 70 48 255 3
-0.167486 -0.102727 0.008656 -0.240585 0.390473 -0.888623 92 64 42 255 3
-0.167718 -0.099424 0.010218 -0.157359 0.366361 -0.917070 81 56 37 255 3
-0.167891 -0.096064 0.011888 -0.038813 0.366860 -0.929466 71 49 33 255 3
-0.168128 -0.092751 0.013450 -0.137004 0.488852 -0.861542 65 45 31 255 3
-0.168368 -0.089433 0.015011 -0.470585 -0.740622 -0.479613 76 61 48 255 3
-0.168366 -0.085899 0.017003 -0.467438 -0.853982 -0.228508 101 93 79 255 4
-0.177503 -0.090261 0.002818 -0.674859 -0.349794 -0.649777 107 106 94 255 4
-0.178104 -0.087267 0.003733 -0.626335 -0.304052 -0.717814 110 111 100 255 4
-0.177917 -0.083581 0.006049 -0.615284 -0.044510 -0.787048 111 111 99 255 4
-0.176945 -0.079195 0.009766 -0.648005 -0.160010 -0.744638 111 110 98 255 4
-0.180038 -0.078372 0.006260 -0.616480 -0.075759 -0.783718 104 104 92 255 4
-0.180948 -0.075633 0.006635 -0.620191 -0.056723 -0.782398 97 96 85 255 4
-0.181858 -0.072892 0.007010 -0.583629 -0.064893 -0.809423 98 97 85 255 4
-0.182770 -0.070150 0.007384 -0.574879 -0.032310 -0.817600 98 97 85 255 4
-0.183682 -0.067406 0.007759 -0.560038 -0.010990 -0.828394 94 93 82 255 4
-0.184655 -0.064714 0.008026 -0.565331 -0.012715 -0.824766 96 95 84 255 4
-0.185088 -0.061532 0.009262 -0.581010 0.029574 -0.813359 92 90 80 255 4
-0.185343 -0.058182 0.010821 -0.585354 0.056357 -0.808817 92 91 80 255 4
-0.185661 -0.054882 0.012272 -0.582910 0.013069 -0.812431 93 92 81 255 4
-0.186041 -0.051631 0.013615 -0.646087 -0.045108 -0.761930 102 101 89 255 4
-0.187439 -0.049311 0.013127 -0.690681 -0.077279 -0.719019 93 92 82 255 4
-0.188837 -0.046992 0.012639 -0.715072 -0.084937 -0.693871 97 96 85 255 4
-0.190174 -0.044618 0.012259 -0.738253 -0.069543 -0.670929 90 89 78 255 4
-0.190857 -0.041635 0.013063 -0.760415 -0.075062 -0.645085 90 89 78 255 4
-0.191422 -0.038537 0.014082 -0.777182 -0.071451 -0.625206 93 92 81 255 4
-0.192048 -0.035492 0.014993 -0.788270 -0.071376 -0.611175 92 91 80 255 4
-0.192617 -0.032387 0.016012 -0.811589 -0.087999 -0.577564 93 92 80 255 4
-0.193128 -0.029223 0.017138 -0.842567 -0.141389 -0.519702 89 88 77 255 4
-0.193701 -0.026110 0.018156 -0.870175 -0.218838 -0.441480 88 87 76 255 4
-0.194747 -0.023446 0.018313 -0.884901 -0.232048 -0.403862 89 88 77 255 4
-0.196089 -0.021065 0.017932 -0.900937 -0.265409 -0.343324 89 88 77 255 4
-0.197489 -0.018741 0.017444 -0.938083 -0.167224 -0.303375 89 88 77 255 4
-0.198888 -0.016417 0.016956 -0.956961 -0.113701 -0.267015 90 88 77 255 4
-0.198937 -0.012781 0.018941 -0.924992 -0.043295 -0.377512 89 88 77 255 4
-0.198110 -0.008278 0.022539 -0.799242 -0.129195 -0.586959 97 96 85 255 4
-0.199454 -0.005890 0.022158 -0.763750 -0.163602 -0.624437 92 91 80 255 4
-0.200740 -0.003445 0.021885 -0.625890 -0.312660 -0.714497 90 88 78 255 4
-0.201734 -0.000712 0.022149 -0.550830 -0.348388 -0.758428 90 89 78 255 4
-0.202962 0.001791 0.021982 -0.506916 -0.398359 -0.764425 96 96 85 255 4
-0.204597 0.003887 0.021064 -0.543369 -0.332966 -0.770638 91 90 79 255 4
