ply
format ascii 1.0
comment Created by labeled_geometry.py
element vertex 640
property float x
property float y
property float z
property float nx
property float ny
property float nz
property uchar red
property uchar green
property uchar blue
property uchar alpha
property uchar label
end_header
-0.047524 -0.076044 -0.014877 0.205775 -0.813206 -0.544383 114 90 64 255 4
-0.052133 -0.077580 -0.014643 0.171661 -0.821684 -0.543477 114 90 64 255 4
-0.056756 -0.078768 -0.013905 0.135415 -0.836523 -0.530935 114 91 64 255 4
-0.061381 -0.079956 -0.013167 0.095827 -0.847824 -0.521547 114 90 63 255 4
-0.066013 -0.081058 -0.012302 0.056131 -0.853158 -0.518624 114 90 63 255 4
-0.070655 -0.081987 -0.011186 0.027934 -0.861099 -0.507670 114 90 63 255 4
-0.075314 -0.082656 -0.009691 0.018144 -0.865244 -0.501022 113 89 63 255 4
-0.079986 -0.083153 -0.007944 0.016424 -0.862149 -0.506389 111 88 62 255 4
-0.084669 -0.083565 -0.006071 0.027372 -0.856738 -0.515025 111 88 63 255 4
-0.089336 -0.084326 -0.004701 0.039759 -0.852902 -0.520555 111 89 64 255 4
-0.093977 -0.085609 -0.004089 0.054601 -0.852147 -0.520446 111 88 63 255 4
-0.098630 -0.086718 -0.003224 0.066050 -0.852290 -0.518883 110 87 62 255 4
-0.103286 -0.087829 -0.002359 0.076585 -0.861243 -0.502390 111 87 63 255 4
-0.107956 -0.088767 -0.001242 0.079110 -0.874544 -0.478449 111 87 63 255 4
-0.112622 -0.089793 -0.000250 0.081886 -0.888228 -0.452046 111 87 63 255 4
-0.117273 -0.091079 0.000363 0.089642 -0.898369 -0.429997 111 87 63 255 4
-0.121958 -0.091934 0.001606 0.101174 -0.904417 -0.414479 111 87 63 255 4
-0.126653 -0.092705 0.002976 0.108880 -0.907156 -0.406464 112 87 63 255 4
-0.131338 -0.093649 0.004094 0.107502 -0.909041 -0.402600 113 88 63 255 4
-0.136006 -0.094852 0.004833 0.097965 -0.911414 -0.399659 113 88 63 255 4
-0.140675 -0.096056 0.005572 0.083493 -0.912177 -0.401200 114 88 64 255 4
-0.145376 -0.096917 0.006816 0.073041 -0.913643 -0.399903 113 88 63 255 4
-0.150096 -0.097608 0.008312 0.071885 -0.914940 -0.397136 115 89 64 255 4
-0.154828 -0.098215 0.009935 0.075919 -0.914912 -0.396450 116 89 64 255 4
-0.159557 -0.098909 0.011432 0.086348 -0.913126 -0.398428 117 90 65 255 4
-0.164242 -0.100118 0.012171 0.103628 -0.906652 -0.408954 116 90 64 255 4
-0.168936 -0.101242 0.013037 0.119110 -0.897439 -0.424754 115 89 64 255 4
-0.173642 -0.102282 0.014029 0.130351 -0.888950 -0.439063 116 90 64 255 4
-0.178341 -0.103408 0.014895 0.134782 -0.882380 -0.450821 117 90 64 255 4
-0.183052 -0.104449 0.015887 0.135343 -0.878053 -0.459027 116 89 63 255 4
-0.187748 -0.105662 0.016627 0.137077 -0.874228 -0.465764 117 90 63 255 4
-0.192454 -0.106791 0.017494 0.141701 -0.870737 -0.470891 117 89 63 255 4
-0.197154 -0.108005 0.018234 0.147463 -0.868760 -0.472769 116 88 62 255 4
-0.201856 -0.109221 0.018974 0.156304 -0.868172 -0.471006 116 87 62 255 4
-0.206559 -0.110436 0.019714 0.173943 -0.864268 -0.472002 118 88 62 255 4
-0.211255 -0.111738 0.020328 0.194768 -0.854862 -0.480913 117 87 61 255 4
-0.215952 -0.113040 0.020942 0.226242 -0.837293 -0.497749 118 88 62 255 4
-0.220650 -0.114343 0.021556 0.257009 -0.813885 -0.521093 120 89 63 255 4
-0.225264 -0.116323 0.021161 0.272805 -0.777233 -0.566997 120 90 63 255 4
-0.229876 -0.118303 0.020765 0.295120 -0.748428 -0.593936 122 92 65 255 4
-0.234497 -0.120197 0.020495 0.289657 -0.720551 -0.630004 124 94 67 255 4
-0.239129 -0.122007 0.020352 0.284123 -0.683331 -0.672557 125 96 69 255 4
-0.243772 -0.123733 0.020335 0.260708 -0.647170 -0.716381 126 98 71 255 4
-0.248402 -0.125542 0.020192 0.225256 -0.607811 -0.761463 127 100 73 255 2
-0.253044 -0.127267 0.020175 0.170188 -0.577663 -0.798336 130 102 75 255 2
-0.257734 -0.128655 0.020663 0.073136 -0.543860 -0.835983 130 103 76 255 2
-0.262426 -0.130043 0.021151 -0.035448 -0.510248 -0.859297 129 103 76 255 2
-0.267131 -0.131348 0.021765 -0.140448 -0.491552 -0.859448 128 103 76 255 2
-0.271940 -0.131982 0.023389 -0.299027 -0.458973 -0.836616 126 102 76 255 2
-0.276872 -0.131863 0.026150 -0.424838 -0.421899 -0.800945 123 102 75 255 2
-0.281918 -0.131077 0.029921 -0.541841 -0.380679 -0.749327 124 104 77 255 2
-0.287003 -0.130127 0.033945 -0.638318 -0.339884 -0.690673 125 106 78 255 2
-0.292141 -0.128930 0.038349 -0.686498 -0.319125 -0.653360 123 103 77 255 2
-0.297362 -0.127321 0.043384 -0.733769 -0.287526 -0.615558 116 98 72 255 2
-0.302669 -0.125299 0.049050 -0.791295 -0.259226 -0.553764 112 91 68 255 2
-0.308250 -0.121782 0.056991 -0.823608 -0.228776 -0.518971 107 85 61 255 2
-0.491263 -0.207711 0.030802 0.032814 0.008433 -0.999426 106 90 71 255 2
-0.494845 -0.213220 0.024840 0.010090 0.025200 -0.999631 137 111 85 255 2
-0.498953 -0.216792 0.021914 -0.024991 0.017022 -0.999543 134 108 83 255 2
-0.503714 -0.218028 0.022655 -0.035580 0.018110 -0.999203 136 109 87 255 2
-0.508732 -0.218381 0.024788 -0.081834 -0.073864 -0.993905 142 114 91 255 2
-0.513919 -0.218175 0.027807 -0.212112 -0.194476 -0.957699 131 104 80 255 2
-0.519209 -0.217652 0.031332 -0.259616 -0.297492 -0.918748 126 97 74 255 2
-0.529869 -0.216456 0.038636 -0.290950 -0.321929 -0.900949 100 77 62 255 2
-0.533940 -0.220103 0.035583 -0.204173 -0.366820 -0.907610 115 79 61 255 2
-0.538656 -0.221588 0.035945 -0.142099 -0.231448 -0.962413 116 84 58 255 2
-0.543079 -0.224032 0.034789 -0.089298 -0.094431 -0.991518 118 88 65 255 2
-0.547522 -0.226395 0.033760 0.002969 0.025840 -0.999662 121 92 73 255 2
-0.552012 -0.228597 0.032984 0.100839 0.075382 -0.992043 131 104 84 255 2
-0.556549 -0.230639 0.032460 0.084891 0.059653 -0.994603 135 105 88 255 2
-0.560832 -0.233476 0.030671 0.066498 0.102098 -0.992549 134 102 84 255 2
-0.565516 -0.235039 0.030907 0.162415 0.084931 -0.983061 118 85 67 255 2
-0.570149 -0.236761 0.030890 0.271835 0.128511 -0.953725 108 79 55 255 2
-0.574963 -0.237927 0.031759 0.373179 0.110427 -0.921164 104 74 51 255 2
-0.580432 -0.237113 0.035792 0.435854 0.121789 -0.891739 99 75 53 255 2
-0.584596 -0.255832 0.011327 -0.967976 -0.176955 0.178074 104 65 41 255 2
-0.589116 -0.257779 0.010929 -0.914398 -0.369236 -0.165954 96 60 38 255 2
-0.594576 -0.256962 0.014962 -0.950888 -0.220535 0.217203 89 63 45 255 2
0.649139 0.226491 0.058975 0.130004 -0.221117 -0.966543 114 84 60 255 3
0.644342 0.224623 0.058835 0.104994 -0.258671 -0.960242 116 84 60 255 3
0.639494 0.222561 0.058444 0.091710 -0.278632 -0.956009 116 84 60 255 3
0.634699 0.220694 0.058305 0.078363 -0.312395 -0.946715 118 84 59 255 3
0.629905 0.218827 0.058165 0.067598 -0.380690 -0.922229 117 83 59 255 3
0.625162 0.217155 0.058276 0.048215 -0.440847 -0.896286 115 82 58 255 3
0.620521 0.215872 0.058890 0.031043 -0.499727 -0.865627 115 82 58 255 3
0.615902 0.214685 0.059628 -0.000859 -0.552644 -0.833417 113 81 57 255 3
0.611257 0.213401 0.060242 -0.038703 -0.611963 -0.789939 113 81 57 255 3
0.606660 0.212310 0.061106 -0.107191 -0.696518 -0.709488 113 80 57 255 3
0.602206 0.211799 0.062724 -0.152330 -0.732653 -0.663336 105 75 53 255 3
0.597724 0.211190 0.064216 -0.211115 -0.805258 -0.554067 94 67 46 255 3
0.593429 0.211353 0.066712 -0.314316 -0.851099 -0.420519 82 57 38 255 3
0.589364 0.212480 0.070464 -0.400551 -0.881104 -0.251425 77 53 36 255 3
0.585594 0.214859 0.075848 -0.458460 -0.877543 -0.140477 77 55 38 255 3
0.581995 0.218004 0.082236 -0.476382 -0.873949 -0.096298 81 60 43 255 3
0.325989 0.076635 0.015241 -0.751557 -0.044071 0.658194 95 95 84 255 3
0.321301 0.074805 0.015099 -0.746938 -0.051302 0.662912 95 95 84 255 3
0.315848 0.067321 0.007283 -0.774178 -0.087876 0.626838 98 98 86 255 4
0.309965 0.056419 -0.005187 -0.792765 -0.145400 0.591932 98 98 86 255 4
0.303939 0.044142 -0.019545 0.616157 0.050797 -0.785984 103 102 90 255 4
0.299058 0.040391 -0.022330 0.484666 -0.000539 -0.874699 109 108 96 255 4
0.294198 0.036735 -0.024990 0.382855 -0.054221 -0.922216 105 104 93 255 4
0.289393 0.033452 -0.027147 0.333122 -0.061968 -0.940845 110 109 98 255 4
0.284731 0.031279 -0.027794 0.277993 -0.056856 -0.958899 111 111 100 255 4
0.280072 0.029107 -0.028441 0.247747 -0.061061 -0.966899 117 117 105 255 4
0.275415 0.026935 -0.029088 0.228341 -0.057469 -0.971884 112 113 101 255 4
0.270760 0.024765 -0.029736 0.219229 -0.065682 -0.973460 112 113 101 255 4
0.266066 0.022227 -0.030886 0.230056 -0.078235 -0.970027 106 107 96 255 4
0.261345 0.019415 -0.032415 0.244999 -0.089951 -0.965342 105 106 95 255 4
0.256619 0.016513 -0.034069 0.243951 -0.112235 -0.963271 109 110 99 255 4
0.251977 0.014347 -0.034716 0.230448 -0.128699 -0.964536 109 110 99 255 4
0.247348 0.012273 -0.035238 0.212020 -0.133359 -0.968123 112 113 101 255 4
0.242683 0.009834 -0.036264 0.190523 -0.133752 -0.972528 117 117 105 255 4
0.238050 0.007671 -0.036911 0.150310 -0.131668 -0.979832 127 128 115 255 4
0.233446 0.005783 -0.037182 0.083003 -0.099904 -0.991529 130 131 118 255 4
0.228844 0.003896 -0.037452 0.045265 -0.073451 -0.996271 132 134 121 255 4
0.224251 0.002100 -0.037596 0.021448 -0.049055 -0.998566 132 134 120 255 4
0.219642 0.000122 -0.037992 0.003904 -0.031307 -0.999502 130 125 109 255 4
0.215368 0.001793 -0.033353 -0.008258 -0.014297 -0.999864 124 107 87 255 4
0.210722 -0.000551 -0.034253 0.005680 -0.032506 -0.999455 123 98 77 255 4
0.206111 -0.002530 -0.034649 0.030012 -0.070225 -0.997080 123 97 74 255 4
0.201501 -0.004508 -0.035045 0.040824 -0.128859 -0.990822 123 98 74 255 4
0.196893 -0.006486 -0.035441 0.094114 -0.203389 -0.974564 125 99 75 255 4
0.192287 -0.008463 -0.035838 0.145417 -0.279882 -0.948957 126 99 76 255 4
0.187682 -0.010439 -0.036234 0.212322 -0.355898 -0.910086 127 99 75 255 4
0.183072 -0.012506 -0.036756 0.226589 -0.398184 -0.888880 128 100 76 255 4
0.178471 -0.014481 -0.037153 0.202619 -0.413846 -0.887512 128 100 76 255 4
0.173871 -0.016456 -0.037549 0.171180 -0.419636 -0.891405 127 99 76 255 4
0.169285 -0.018249 -0.037693 0.135320 -0.428540 -0.893332 126 99 75 255 4
0.164707 -0.019952 -0.037712 0.095244 -0.420919 -0.902084 127 102 77 255 4
0.160164 -0.021112 -0.036975 0.055982 -0.415788 -0.907737 126 101 76 255 4
0.155613 -0.022363 -0.036364 0.019441 -0.412589 -0.910710 127 101 76 255 4
0.151067 -0.023524 -0.035627 -0.003705 -0.411058 -0.911602 127 102 77 255 4
0.146518 -0.024686 -0.034890 -0.029628 -0.415907 -0.908924 127 102 77 255 4
0.141968 -0.025849 -0.034153 -0.046330 -0.426099 -0.903489 127 102 77 255 4
0.137410 -0.027103 -0.033541 -0.058547 -0.440725 -0.895731 126 102 76 255 4
0.132856 -0.028267 -0.032804 -0.071302 -0.453352 -0.888475 125 102 76 255 4
0.128299 -0.029432 -0.032067 -0.086580 -0.466130 -0.880470 126 103 77 255 4
0.123754 -0.030328 -0.030951 -0.098991 -0.475350 -0.874210 126 103 77 255 4
0.119209 -0.031136 -0.029710 -0.115350 -0.487189 -0.865645 127 104 78 255 4
0.114661 -0.031945 -0.028469 -0.130240 -0.498200 -0.857225 127 104 77 255 4
0.110105 -0.032845 -0.027353 -0.141291 -0.508885 -0.849160 127 104 77 255 4
0.105557 -0.033477 -0.025859 -0.147209 -0.515923 -0.843892 128 103 77 255 4
0.101001 -0.034200 -0.024492 -0.148927 -0.525911 -0.837400 128 103 77 255 4
0.096441 -0.034925 -0.023124 -0.147928 -0.532861 -0.833173 128 103 77 255 4
0.091874 -0.035741 -0.021882 -0.146292 -0.537696 -0.830350 127 104 77 255 4
0.087304 -0.036558 -0.020640 -0.131844 -0.539688 -0.831477 126 104 76 255 4
0.082729 -0.037376 -0.019398 -0.113697 -0.543617 -0.831597 127 105 77 255 4
0.078154 -0.038106 -0.018030 -0.091457 -0.549143 -0.830709 126 103 76 255 4
0.073570 -0.039016 -0.016914 -0.067891 -0.556792 -0.827873 126 102 76 255 4
0.068980 -0.040104 -0.016049 -0.047673 -0.566571 -0.822633 126 102 75 255 4
0.064386 -0.041194 -0.015185 -0.037650 -0.577410 -0.815586 126 102 75 255 4
0.059789 -0.042373 -0.014447 -0.029088 -0.589643 -0.807140 126 102 75 255 4
0.055192 -0.043464 -0.013583 -0.026267 -0.603238 -0.797129 126 102 75 255 4
0.050592 -0.044556 -0.012718 -0.022620 -0.615096 -0.788127 125 101 74 255 4
0.045989 -0.045649 -0.011854 -0.011685 -0.626174 -0.779596 125 101 74 255 4
0.041385 -0.046655 -0.010863 0.010878 -0.634924 -0.772498 125 101 74 255 4
0.036778 -0.047572 -0.009746 0.042782 -0.642695 -0.764927 124 100 73 255 4
0.032167 -0.048756 -0.009008 0.074914 -0.647089 -0.758725 123 99 73 255 4
0.027554 -0.050294 -0.008773 0.109173 -0.656316 -0.746546 122 97 72 255 4
0.022941 -0.051744 -0.008413 0.145110 -0.666509 -0.731238 122 96 71 255 4
0.018327 -0.053195 -0.008053 0.190877 -0.674268 -0.713392 121 95 70 255 4
0.013711 -0.054645 -0.007692 0.229837 -0.672839 -0.703181 120 94 69 255 4
0.009097 -0.056272 -0.007584 0.281262 -0.671570 -0.685482 117 93 68 255 4
0.004489 -0.058514 -0.008358 0.334985 -0.674032 -0.658381 116 93 68 255 4
-0.000117 -0.060668 -0.009007 0.365769 -0.682749 -0.632508 117 94 68 255 4
-0.004720 -0.062909 -0.009781 0.368608 -0.701287 -0.610184 116 92 67 255 4
-0.009321 -0.065061 -0.010430 0.356116 -0.724629 -0.589995 117 93 67 255 4
-0.013924 -0.067036 -0.010826 0.341336 -0.747384 -0.570007 116 92 66 255 4
-0.018528 -0.068836 -0.010970 0.329378 -0.764347 -0.554332 115 91 65 255 4
-0.023134 -0.070548 -0.010988 0.315708 -0.780377 -0.539760 115 91 65 255 4
-0.027738 -0.072348 -0.011132 0.301239 -0.798618 -0.521023 113 90 64 255 4
-0.032342 -0.074059 -0.011151 0.286454 -0.809490 -0.512514 114 91 65 255 4
-0.036950 -0.075684 -0.011042 0.267784 -0.818134 -0.508870 114 91 64 255 4
-0.041560 -0.077221 -0.010808 0.243689 -0.827534 -0.505771 114 90 64 255 4
-0.046170 -0.078758 -0.010574 0.215196 -0.843113 -0.492800 114 90 64 255 4
-0.050781 -0.080295 -0.010340 0.179719 -0.854992 -0.486508 113 89 64 255 4
-0.055411 -0.081397 -0.009475 0.147069 -0.864806 -0.480085 113 89 63 255 4
-0.060050 -0.082327 -0.008357 0.105649 -0.875991 -0.470614 112 89 63 255 4
-0.064696 -0.083170 -0.007113 0.067766 -0.884521 -0.461551 112 88 62 255 4
-0.069341 -0.084101 -0.005996 0.045602 -0.888024 -0.457530 112 88 62 255 4
-0.073999 -0.084861 -0.004626 0.038933 -0.887377 -0.459397 111 87 62 255 4
-0.078678 -0.085275 -0.002751 0.043965 -0.883613 -0.466150 110 87 62 255 4
-0.083350 -0.085950 -0.001254 0.049711 -0.881381 -0.469784 110 88 62 255 4
-0.087995 -0.087147 -0.000515 0.056551 -0.881082 -0.469570 110 87 62 255 4
-0.092638 -0.088430 0.000099 0.060085 -0.877250 -0.476258 109 87 62 255 4
-0.097293 -0.089542 0.000964 0.068803 -0.883820 -0.462740 110 87 62 255 4
-0.101962 -0.090481 0.002083 0.070536 -0.896043 -0.438328 110 87 62 255 4
-0.106633 -0.091422 0.003201 0.069884 -0.909213 -0.410423 110 87 63 255 4
-0.111296 -0.092536 0.004067 0.073653 -0.918933 -0.387476 109 86 62 255 4
-0.115986 -0.093307 0.005438 0.089473 -0.926687 -0.365028 109 86 61 255 4
-0.120693 -0.093907 0.007061 0.105303 -0.927331 -0.359122 109 86 61 255 4
-0.125398 -0.094595 0.008558 0.116301 -0.926386 -0.358167 111 87 62 255 4
-0.130081 -0.095627 0.009551 0.117358 -0.927087 -0.356002 112 86 62 255 4
-0.134766 -0.096661 0.010543 0.110402 -0.928523 -0.354481 112 86 61 255 4
-0.139433 -0.097953 0.011157 0.100313 -0.930839 -0.351391 112 87 62 255 4
-0.144138 -0.098817 0.012402 0.092419 -0.932637 -0.348778 112 87 61 255 4
-0.148861 -0.099512 0.013900 0.089733 -0.934558 -0.344309 114 87 61 255 4
-0.153597 -0.100122 0.015524 0.095136 -0.934771 -0.342276 114 87 61 255 4
-0.158314 -0.100990 0.016769 0.112159 -0.930068 -0.349849 115 88 62 255 4
-0.163002 -0.102201 0.017510 0.122335 -0.920928 -0.370034 115 88 62 255 4
-0.167692 -0.103413 0.018250 0.139277 -0.911372 -0.387302 114 88 62 255 4
-0.172384 -0.104626 0.018991 0.148747 -0.902697 -0.403749 113 87 61 255 4
-0.177095 -0.105669 0.019984 0.154207 -0.898202 -0.411646 114 87 61 255 4
-0.181800 -0.106798 0.020851 0.153089 -0.893938 -0.421235 114 87 61 255 4
-0.186499 -0.108013 0.021591 0.152085 -0.890198 -0.429439 115 87 61 255 4
-0.191209 -0.109144 0.022458 0.151995 -0.887568 -0.434879 115 86 61 255 4
-0.195921 -0.110276 0.023326 0.153948 -0.885567 -0.438260 113 84 60 255 4
-0.200626 -0.111493 0.024066 0.161495 -0.886464 -0.433707 113 84 60 255 4
-0.205333 -0.112711 0.024807 0.187683 -0.879561 -0.437204 114 84 59 255 4
-0.210032 -0.114014 0.025422 0.216674 -0.867140 -0.448466 115 86 60 255 4
-0.214732 -0.115318 0.026036 0.256415 -0.846306 -0.466924 117 87 61 255 4
-0.219392 -0.116961 0.026146 0.294401 -0.819416 -0.491819 118 88 62 255 4
-0.223998 -0.119026 0.025623 0.325374 -0.789079 -0.521044 119 89 62 255 4
-0.228612 -0.121006 0.025227 0.342436 -0.753642 -0.561037 120 91 64 255 4
-0.233226 -0.122986 0.024831 0.345950 -0.725596 -0.594835 123 92 65 255 4
-0.237837 -0.124965 0.024435 0.345655 -0.691301 -0.634528 124 94 67 255 4
-0.242470 -0.126775 0.024292 0.329670 -0.656664 -0.678314 126 97 70 255 4
-0.247103 -0.128584 0.024148 0.306329 -0.620604 -0.721813 128 99 72 255 2
-0.251602 -0.131318 0.022615 0.247203 -0.587358 -0.770650 130 101 74 255 2
-0.256304 -0.132623 0.023229 0.158688 -0.547613 -0.821546 130 103 75 255 2
-0.260995 -0.134012 0.023718 0.049899 -0.524771 -0.849780 129 103 76 255 2
-0.265712 -0.135233 0.024459 -0.095410 -0.497715 -0.862077 128 103 75 255 2
-0.270521 -0.135869 0.026084 -0.230415 -0.488300 -0.841708 126 103 76 255 2
-0.275321 -0.136591 0.027584 -0.367287 -0.447508 -0.815375 124 103 77 255 2
-0.280337 -0.135975 0.031106 -0.499234 -0.404042 -0.766496 122 103 76 255 2
-0.285404 -0.135113 0.035007 -0.606582 -0.367915 -0.704767 124 104 77 255 2
-0.290524 -0.134005 0.039288 -0.663216 -0.347011 -0.663120 123 102 76 255 2
-0.295767 -0.132234 0.044581 -0.719174 -0.328831 -0.612094 118 98 73 255 2
-0.300957 -0.130885 0.049241 -0.774409 -0.296660 -0.558823 112 91 67 255 2
-0.306487 -0.127626 0.056810 -0.802556 -0.281755 -0.525850 109 83 60 255 2
-0.312444 -0.122046 0.067919 -0.843753 -0.234023 -0.483026 93 81 61 255 2
-0.488944 -0.214816 0.028435 0.069499 0.056206 -0.995997 128 100 75 255 2
-0.492879 -0.219028 0.024493 0.051495 0.051721 -0.997333 132 106 79 255 2
-0.497074 -0.222272 0.022070 -0.003429 0.043872 -0.999031 134 108 83 255 2
-0.501671 -0.224070 0.021926 -0.066684 0.038189 -0.997043 138 111 88 255 2
-0.506613 -0.224664 0.023681 -0.136361 -0.024835 -0.990348 143 117 95 255 2
-0.511699 -0.224780 0.026196 -0.259304 -0.127899 -0.957290 149 122 98 255 2
-0.516840 -0.224739 0.028964 -0.335295 -0.168260 -0.926966 146 116 94 255 2
-0.522013 -0.224620 0.031859 -0.309276 -0.237818 -0.920756 134 111 90 255 2
-0.526909 -0.225463 0.033235 -0.307537 -0.194675 -0.931409 118 93 77 255 2
-0.531785 -0.226388 0.034484 -0.200351 -0.209006 -0.957171 123 92 69 255 2
-0.536664 -0.227313 0.035733 -0.120136 -0.120094 -0.985467 126 99 75 255 2
-0.541205 -0.229356 0.035209 0.001142 -0.020345 -0.999792 132 107 85 255 2
-0.545645 -0.231716 0.034179 0.101597 -0.000997 -0.994825 136 114 93 255 2
-0.550057 -0.234154 0.033021 0.129698 0.070338 -0.989056 137 117 96 255 2
-0.554490 -0.236511 0.031991 0.130624 0.055683 -0.989867 138 113 96 255 2
-0.558995 -0.238629 0.031340 0.103259 0.100872 -0.989526 136 109 92 255 2
-0.563752 -0.239953 0.031956 0.090743 0.151306 -0.984313 124 97 79 255 2
-0.568793 -0.240406 0.033965 0.105149 0.183584 -0.977364 102 82 62 255 2
-0.574305 -0.239436 0.038255 0.165387 0.167928 -0.971827 104 84 59 255 2
-0.571079 -0.265048 -0.000023 -0.844444 -0.521514 -0.122215 130 101 80 255 2
-0.580120 -0.253316 0.021497 -0.722786 -0.165669 0.670920 128 98 76 255 2
-0.584309 -0.256293 0.019452 -0.840377 -0.160685 0.517636 107 79 58 255 2
-0.588598 -0.258953 0.017913 -0.890937 -0.188697 0.413068 96 73 53 255 2
-0.593982 -0.258379 0.021570 -0.875186 -0.212168 0.434781 84 68 51 255 2
0.650149 0.221058 0.059839 0.045382 -0.270265 -0.961716 113 84 60 255 3
0.645329 0.219095 0.059574 0.061332 -0.281805 -0.957510 115 83 59 255 3
0.640614 0.217521 0.059811 0.033625 -0.315848 -0.948214 120 85 60 255 3
0.635925 0.216044 0.060173 0.021300 -0.344098 -0.938692 119 84 60 255 3
0.631132 0.214178 0.060033 0.014453 -0.422716 -0.906147 116 82 58 255 3
0.626493 0.212895 0.060647 -0.001317 -0.484627 -0.874720 116 82 59 255 3
0.621878 0.211708 0.061386 -0.019609 -0.547682 -0.836457 116 82 59 255 3
0.617285 0.210618 0.062251 -0.056459 -0.613340 -0.787799 115 81 58 255 3
0.612691 0.209526 0.063116 -0.102424 -0.677349 -0.728497 114 82 58 255 3
0.608217 0.208918 0.064609 -0.137725 -0.714937 -0.685490 108 77 55 255 3
0.603763 0.208405 0.066228 -0.224171 -0.798843 -0.558208 100 71 50 255 3
0.599401 0.208277 0.068350 -0.291384 -0.829918 -0.475743 87 61 42 255 3
0.595346 0.209402 0.072105 -0.374982 -0.870280 -0.319378 79 56 38 255 3
0.591470 0.211295 0.076866 -0.447426 -0.876574 -0.177277 78 57 39 255 3
0.587815 0.214147 0.082883 -0.487512 -0.866000 -0.111246 79 59 41 255 3
0.584470 0.218342 0.090660 -0.504664 -0.860718 -0.066929 72 64 48 255 3
0.322670 0.070721 0.017545 -0.767300 -0.011275 0.641189 96 96 85 255 3
0.317227 0.063340 0.009848 -0.800669 -0.075852 0.594286 95 94 83 255 4
0.311214 0.051529 -0.003893 -0.808784 -0.115091 0.576734 97 96 85 255 4
0.305111 0.038718 -0.019021 0.642192 -0.012618 -0.766440 102 100 88 255 4
0.300244 0.035064 -0.021683 0.487085 -0.115042 -0.865745 102 100 88 255 4
0.295445 0.031875 -0.023716 0.422442 -0.107062 -0.900045 108 108 96 255 4
0.290653 0.028687 -0.025749 0.365611 -0.107934 -0.924488 109 108 97 255 4
0.285925 0.025963 -0.027153 0.317566 -0.101072 -0.942834 107 107 96 255 4
0.281268 0.023793 -0.027801 0.281159 -0.101082 -0.954323 114 114 102 255 4
0.276614 0.021624 -0.028449 0.248196 -0.096711 -0.963870 115 116 104 255 4
0.271963 0.019455 -0.029097 0.229547 -0.099347 -0.968214 112 113 101 255 4
0.267229 0.016553 -0.030753 0.236163 -0.120331 -0.964234 110 110 99 255 4
0.262511 0.013745 -0.032283 0.248982 -0.149017 -0.956975 109 109 98 255 4
0.257890 0.011763 -0.032679 0.252610 -0.173676 -0.951853 112 112 101 255 4
0.253281 0.009874 -0.032950 0.245840 -0.191911 -0.950123 112 112 100 255 4
0.248644 0.007710 -0.033598 0.233266 -0.206149 -0.950310 110 110 99 255 4
0.243980 0.005273 -0.034624 0.222555 -0.208625 -0.952337 110 110 99 255 4
0.239320 0.002838 -0.035651 0.226323 -0.223248 -0.948123 115 115 102 255 4
0.234672 0.000494 -0.036552 0.170107 -0.195725 -0.965793 125 126 113 255 4
0.230073 -0.001391 -0.036822 0.135851 -0.153229 -0.978808 129 130 118 255 4
0.225475 -0.003277 -0.037093 0.097087 -0.115703 -0.988528 129 131 118 255 4
0.220870 -0.005253 -0.037490 0.033598 -0.074829 -0.996630 130 132 119 255 4
0.216266 -0.007228 -0.037887 -0.007874 -0.058167 -0.998276 134 131 116 255 4
0.211664 -0.009203 -0.038283 -0.029624 -0.049763 -0.998322 126 113 94 255 4
0.207454 -0.006723 -0.032505 -0.025898 -0.063233 -0.997663 125 102 81 255 4
0.202845 -0.008700 -0.032902 -0.044768 -0.094022 -0.994563 122 97 74 255 4
0.198230 -0.010767 -0.033425 0.006693 -0.165467 -0.986193 123 97 74 255 4
0.193625 -0.012743 -0.033822 0.020339 -0.228390 -0.973357 125 99 75 255 4
0.189021 -0.014719 -0.034218 0.096988 -0.300939 -0.948699 125 99 75 255 4
0.184419 -0.016694 -0.034615 0.156696 -0.379715 -0.911736 125 99 75 255 4
0.179825 -0.018578 -0.034886 0.191747 -0.431646 -0.881428 125 99 75 255 4
0.175246 -0.020280 -0.034905 0.192047 -0.452681 -0.870746 125 99 76 255 4
0.170660 -0.022073 -0.035050 0.160538 -0.455452 -0.875666 125 100 76 255 4
0.166082 -0.023775 -0.035068 0.126534 -0.454016 -0.881963 126 100 76 255 4
0.161498 -0.025567 -0.035213 0.087332 -0.455231 -0.886080 126 100 76 255 4
0.156949 -0.026819 -0.034602 0.047162 -0.448190 -0.892693 126 100 76 255 4
0.152404 -0.027980 -0.033864 0.008556 -0.443035 -0.896464 127 101 77 255 4
0.147852 -0.029233 -0.033253 -0.024094 -0.441779 -0.896800 127 101 76 255 4
0.143304 -0.030396 -0.032515 -0.045389 -0.444128 -0.894813 127 101 76 255 4
0.138758 -0.031470 -0.031651 -0.066204 -0.455023 -0.888015 126 101 76 255 4
0.134215 -0.032455 -0.030661 -0.079773 -0.470060 -0.879022 126 102 77 255 4
0.129669 -0.033441 -0.029671 -0.087864 -0.480856 -0.872386 126 102 77 255 4
0.125120 -0.034428 -0.028681 -0.102067 -0.492937 -0.864058 126 103 77 255 4
0.120577 -0.035236 -0.027438 -0.118463 -0.502860 -0.856212 126 103 77 255 4
0.116030 -0.036047 -0.026196 -0.135239 -0.508940 -0.850112 127 103 77 255 4
0.111480 -0.036858 -0.024953 -0.146331 -0.516987 -0.843393 126 102 77 255 4
0.106933 -0.037492 -0.023458 -0.154224 -0.523437 -0.837991 126 102 76 255 4
0.102378 -0.038217 -0.022089 -0.154923 -0.528818 -0.834476 128 102 76 255 4
0.097819 -0.038943 -0.020720 -0.153644 -0.533893 -0.831476 128 101 75 255 4
0.093253 -0.039760 -0.019477 -0.149166 -0.538193 -0.829517 128 102 75 255 4
0.088687 -0.040489 -0.018108 -0.137862 -0.542408 -0.828726 127 103 76 255 4
0.084113 -0.041308 -0.016865 -0.122960 -0.549525 -0.826380 127 103 76 255 4
0.079536 -0.042129 -0.015622 -0.103755 -0.558407 -0.823053 127 102 76 255 4
0.074954 -0.043040 -0.014504 -0.081323 -0.571986 -0.816222 126 102 75 255 4
0.070364 -0.044129 -0.013639 -0.059517 -0.586839 -0.807513 125 101 74 255 4
0.065774 -0.045131 -0.012648 -0.051062 -0.602422 -0.796543 126 101 74 255 4
0.061179 -0.046222 -0.011783 -0.039888 -0.618615 -0.784681 125 100 74 255 4
0.056582 -0.047314 -0.010918 -0.033829 -0.635365 -0.771471 125 101 74 255 4
0.051985 -0.048230 -0.009801 -0.027433 -0.644810 -0.763850 124 101 73 255 4
0.047384 -0.049147 -0.008683 -0.013406 -0.656508 -0.754200 124 100 73 255 4
0.042780 -0.050066 -0.007565 0.002409 -0.667318 -0.744769 123 99 72 255 4
0.038173 -0.051073 -0.006574 0.032282 -0.676369 -0.735855 121 98 71 255 4
0.033562 -0.052170 -0.005708 0.065264 -0.686217 -0.724463 121 97 71 255 4
0.028949 -0.053620 -0.005348 0.098461 -0.696269 -0.710996 120 96 70 255 4
0.024334 -0.055071 -0.004987 0.131421 -0.707844 -0.694035 119 94 69 255 4
0.019719 -0.056522 -0.004626 0.175068 -0.715265 -0.676570 119 94 69 255 4
0.015102 -0.057885 -0.004139 0.225184 -0.716381 -0.660371 119 94 68 255 4
0.010486 -0.059425 -0.003905 0.266124 -0.721733 -0.638967 118 93 68 255 4
0.005875 -0.061491 -0.004428 0.317628 -0.725782 -0.610207 116 92 66 255 4
0.001266 -0.063644 -0.005077 0.341201 -0.739312 -0.580517 118 93 67 255 4
-0.003340 -0.065797 -0.005726 0.349445 -0.751747 -0.559254 117 92 66 255 4
-0.007947 -0.067773 -0.006123 0.338857 -0.774570 -0.534057 116 91 65 255 4
-0.012560 -0.069311 -0.005888 0.334378 -0.791624 -0.511393 116 90 65 255 4
-0.017170 -0.071025 -0.005906 0.324174 -0.806441 -0.494534 115 91 65 255 4
-0.021780 -0.072738 -0.005924 0.312709 -0.822121 -0.475742 114 90 65 255 4
-0.026389 -0.074451 -0.005943 0.305725 -0.829958 -0.466586 113 90 64 255 4
-0.030998 -0.076164 -0.005961 0.295835 -0.835914 -0.462309 112 90 64 255 4
-0.035611 -0.077702 -0.005726 0.279477 -0.845613 -0.454787 112 90 64 255 4
-0.040226 -0.079241 -0.005492 0.255299 -0.853992 -0.453344 113 89 63 255 4
-0.044840 -0.080780 -0.005257 0.222194 -0.865063 -0.449773 112 90 64 255 4
-0.049452 -0.082405 -0.005149 0.186065 -0.877059 -0.442885 111 88 63 255 4
-0.054084 -0.083510 -0.004283 0.152341 -0.886593 -0.436743 113 90 64 255 4
-0.058727 -0.084442 -0.003164 0.113641 -0.897570 -0.425974 111 88 62 255 4
-0.063376 -0.085288 -0.001920 0.085052 -0.904362 -0.418204 110 87 62 255 4
-0.068021 -0.086309 -0.000927 0.069792 -0.907765 -0.413632 111 87 62 255 4
-0.072686 -0.086984 0.000571 0.065881 -0.908298 -0.413104 110 86 61 255 4
-0.077364 -0.087488 0.002321 0.066042 -0.908998 -0.411534 110 86 61 255 4
-0.082005 -0.088772 0.002935 0.067084 -0.906357 -0.417152 110 87 61 255 4
-0.086648 -0.090057 0.003548 0.067413 -0.904845 -0.420371 109 86 61 255 4
-0.091303 -0.091169 0.004415 0.072515 -0.906022 -0.416973 109 86 61 255 4
-0.095965 -0.092196 0.005408 0.067584 -0.909518 -0.410132 109 86 61 255 4
-0.100641 -0.093052 0.006653 0.060797 -0.927500 -0.368845 108 86 61 255 4
-0.105344 -0.093564 0.008404 0.061944 -0.937160 -0.343358 109 86 62 255 4
-0.110051 -0.094079 0.010155 0.077913 -0.947780 -0.309261 108 85 61 255 4
-0.114764 -0.094595 0.011907 0.095240 -0.949599 -0.298650 107 85 61 255 4
-0.119470 -0.095285 0.013405 0.117612 -0.948387 -0.294500 109 86 61 255 4
-0.124154 -0.096320 0.014399 0.132723 -0.946699 -0.293505 108 85 60 255 4
-0.128841 -0.097355 0.015392 0.134462 -0.946454 -0.293506 109 85 60 255 4
-0.133510 -0.098649 0.016007 0.121956 -0.946384 -0.299137 110 85 60 255 4
-0.138180 -0.099943 0.016621 0.107988 -0.946733 -0.303372 110 85 60 255 4
-0.142896 -0.100725 0.017994 0.105232 -0.949426 -0.295830 111 86 60 255 4
-0.147624 -0.101422 0.019493 0.104987 -0.950314 -0.293055 112 86 60 255 4
-0.152356 -0.102122 0.020992 0.118397 -0.951002 -0.285618 112 86 60 255 4
-0.157076 -0.102993 0.022239 0.131385 -0.944248 -0.301884 112 85 60 255 4
-0.161768 -0.104206 0.022980 0.154768 -0.933723 -0.322812 113 85 60 255 4
-0.166462 -0.105421 0.023721 0.173402 -0.922795 -0.344067 112 85 60 255 4
-0.171158 -0.106636 0.024462 0.179952 -0.913684 -0.364416 112 85 59 255 4
-0.175864 -0.107766 0.025330 0.176500 -0.907974 -0.380041 112 84 59 255 4
-0.180546 -0.109153 0.025818 0.171765 -0.904379 -0.390635 112 85 59 255 4
-0.185257 -0.110285 0.026686 0.170892 -0.902136 -0.396164 112 84 59 255 4
-0.189970 -0.111418 0.027554 0.165603 -0.901620 -0.399571 113 84 59 255 4
-0.194686 -0.112552 0.028422 0.162740 -0.901547 -0.400909 111 82 58 255 4
-0.199404 -0.113687 0.029290 0.173554 -0.896994 -0.406546 112 82 58 255 4
-0.204114 -0.114907 0.030031 0.195617 -0.887034 -0.418217 113 83 59 255 4
-0.208837 -0.116043 0.030899 0.235695 -0.868556 -0.435956 115 85 59 255 4
-0.213541 -0.117349 0.031514 0.281227 -0.843311 -0.457972 115 85 59 255 4
-0.218184 -0.119162 0.031371 0.324762 -0.813568 -0.482323 116 86 59 255 4
-0.222783 -0.121312 0.030722 0.359309 -0.781637 -0.509844 116 86 59 255 4
-0.227391 -0.123377 0.030199 0.385346 -0.747969 -0.540417 118 88 61 255 4
-0.231986 -0.125526 0.029549 0.397173 -0.713969 -0.576630 120 89 62 255 4
-0.236589 -0.127589 0.029026 0.403205 -0.685193 -0.606578 122 92 65 255 4
-0.241179 -0.129736 0.028377 0.401655 -0.645086 -0.650028 124 94 67 255 3
-0.245802 -0.131630 0.028107 0.383093 -0.602445 -0.700214 127 97 70 255 2
-0.250209 -0.135034 0.025560 0.292241 -0.572374 -0.766149 129 100 73 255 2
-0.254874 -0.136590 0.025795 0.225509 -0.559179 -0.797787 130 102 75 255 2
-0.259577 -0.137896 0.026410 0.106101 -0.531008 -0.840698 131 104 76 255 2
-0.264268 -0.139285 0.026899 -0.046445 -0.509223 -0.859380 129 103 75 255 2
-0.269025 -0.140257 0.028020 -0.178467 -0.486699 -0.855145 127 102 75 255 2
-0.273810 -0.141064 0.029395 -0.326413 -0.451545 -0.830398 126 104 77 255 2
-0.278757 -0.140870 0.032287 -0.455705 -0.423843 -0.782745 124 103 76 255 2
-0.283806 -0.140095 0.036066 -0.573466 -0.391307 -0.719733 125 104 77 255 2
-0.288921 -0.138991 0.040351 -0.647994 -0.372547 -0.664314 124 103 77 255 2
-0.294118 -0.137475 0.045268 -0.706315 -0.356284 -0.611703 119 98 73 255 2
-0.299344 -0.135882 0.050313 -0.770442 -0.325606 -0.548088 112 91 66 255 2
-0.304755 -0.133297 0.056876 -0.794238 -0.302068 -0.527201 108 83 59 255 2
-0.310717 -0.127646 0.068122 -0.835490 -0.275332 -0.475550 95 80 58 255 2
-0.487006 -0.220542 0.028213 0.107556 0.044470 -0.993204 127 98 72 255 2
-0.490894 -0.224908 0.024013 0.097048 0.049443 -0.994051 130 103 77 255 2
-0.495130 -0.227987 0.021841 0.058190 0.055819 -0.996744 133 108 84 255 2
-0.499677 -0.229942 0.021443 -0.052395 0.003476 -0.998620 134 108 85 255 2
-0.504635 -0.230457 0.023326 -0.140640 -0.016153 -0.989929 138 112 90 255 2
-0.509530 -0.231213 0.024829 -0.295583 -0.055963 -0.953677 143 117 95 255 2
-0.514663 -0.231173 0.027600 -0.337002 -0.110188 -0.935034 142 114 93 255 2
-0.519734 -0.231375 0.029990 -0.367397 -0.083046 -0.926349 136 114 92 255 2
-0.524788 -0.231659 0.032254 -0.304374 -0.111870 -0.945961 134 110 89 255 2
-0.529681 -0.232503 0.033631 -0.230025 -0.066973 -0.970878 134 109 89 255 2
-0.534554 -0.233428 0.034881 -0.102056 0.012255 -0.994703 134 111 91 255 2
-0.539358 -0.234593 0.035751 0.012854 0.048670 -0.998732 141 117 91 255 2
-0.543820 -0.236871 0.034846 0.075325 0.087261 -0.993334 139 122 100 255 2
-0.548204 -0.239386 0.033561 0.116030 0.111839 -0.986929 139 122 101 255 2
-0.552584 -0.241899 0.032276 0.114603 0.132743 -0.984503 138 119 99 255 2
-0.556985 -0.244331 0.031117 0.133549 0.142829 -0.980696 136 113 95 255 2
-0.561331 -0.246921 0.029704 0.095634 0.171466 -0.980537 132 105 90 255 2
-0.566158 -0.248006 0.030701 0.121477 0.187467 -0.974731 118 97 78 255 2
-0.564104 -0.270187 -0.002161 0.479652 -0.484816 -0.731360 110 97 76 255 2
-0.568857 -0.271334 -0.001292 0.376193 -0.574327 -0.727067 140 124 103 255 2
-0.573691 -0.272245 -0.000043 -0.540867 -0.743065 -0.394104 138 117 99 255 2
-0.578239 -0.274025 -0.000188 -0.534779 -0.720021 -0.442245 119 94 77 255 2
-0.583051 -0.275017 0.000934 -0.626044 -0.654875 -0.423330 117 88 67 255 2
0.651130 0.215534 0.060574 -0.002741 -0.331892 -0.943314 115 86 56 255 3
0.646339 0.213669 0.060434 -0.002239 -0.329380 -0.944195 115 86 56 255 3
0.641628 0.212096 0.060671 -0.025447 -0.366870 -0.929924 119 84 60 255 3
0.636968 0.210717 0.061159 -0.029095 -0.404342 -0.914145 117 84 60 255 3
0.632487 0.210016 0.062528 -0.045732 -0.471570 -0.880642 115 82 59 255 3
0.627900 0.208926 0.063393 -0.058180 -0.544134 -0.836979 116 83 59 255 3
0.623310 0.207836 0.064259 -0.075806 -0.609915 -0.788833 116 83 59 255 3
0.618693 0.206648 0.064999 -0.104511 -0.667854 -0.736918 115 82 59 255 3
0.614224 0.206039 0.066494 -0.147445 -0.733498 -0.663506 110 79 56 255 3
0.609774 0.205525 0.068114 -0.200427 -0.772779 -0.602197 103 73 52 255 3
0.605320 0.205010 0.069734 -0.286238 -0.826891 -0.484065 92 65 45 255 3
0.601250 0.206037 0.073367 -0.386784 -0.856149 -0.342648 82 58 39 255 3
0.597338 0.207734 0.077880 -0.457572 -0.863755 -0.211080 78 56 39 255 3
0.593699 0.210583 0.083903 -0.490871 -0.861033 -0.132924 79 59 41 255 3
0.590135 0.213810 0.090430 -0.514991 -0.854133 -0.072394 76 62 44 255 3
0.318607 0.059359 0.012413 -0.837842 -0.036347 0.544701 99 98 87 255 4
0.311166 0.037044 -0.015711 -0.720833 0.065949 0.689965 97 96 85 255 4
0.306305 0.033484 -0.018249 0.654357 -0.139799 -0.743150 99 97 86 255 4
0.301500 0.030296 -0.020284 0.552177 -0.178009 -0.814502 107 106 94 255 4
0.296703 0.027110 -0.022319 0.481027 -0.175627 -0.858934 107 106 94 255 4
0.291912 0.023926 -0.024354 0.451893 -0.167450 -0.876216 108 108 96 255 4
0.287128 0.020745 -0.026390 0.370547 -0.156711 -0.915498 109 109 98 255 4
0.282474 0.018577 -0.027039 0.309671 -0.131794 -0.941666 109 109 98 255 4
0.277823 0.016410 -0.027687 0.255341 -0.126581 -0.958529 111 111 99 255 4
0.273109 0.013693 -0.029093 0.237072 -0.147105 -0.960290 112 112 101 255 4
0.268422 0.011161 -0.030246 0.224155 -0.168548 -0.959868 114 114 103 255 4
0.263811 0.009272 -0.030517 0.235116 -0.202234 -0.950695 115 114 103 255 4
0.259192 0.007292 -0.030914 0.241560 -0.223837 -0.944217 115 114 103 255 4
0.254574 0.005312 -0.031311 0.248887 -0.245789 -0.936826 110 110 98 255 4
0.249938 0.003150 -0.031960 0.251540 -0.256897 -0.933130 108 108 97 255 4
0.245275 0.000716 -0.032988 0.246692 -0.282422 -0.927028 108 108 97 255 4
0.240616 -0.001718 -0.034015 0.247240 -0.295440 -0.922815 108 108 97 255 4
0.235961 -0.004151 -0.035043 0.266329 -0.300022 -0.916000 111 111 99 255 4
0.231336 -0.006308 -0.035692 0.243949 -0.264612 -0.932990 120 120 108 255 4
0.226688 -0.008738 -0.036720 0.201165 -0.220558 -0.954404 127 127 115 255 4
0.222086 -0.010712 -0.037118 0.127722 -0.174886 -0.976269 127 129 117 255 4
0.217486 -0.012686 -0.037515 0.072669 -0.146661 -0.986514 128 131 119 255 4
0.212887 -0.014659 -0.037912 -0.007728 -0.141676 -0.989883 131 130 115 255 4
0.208290 -0.016631 -0.038310 -0.054406 -0.123095 -0.990902 131 130 115 255 4
0.204181 -0.012981 -0.030886 -0.058209 -0.096198 -0.993659 127 118 101 255 4
0.199574 -0.014957 -0.031284 -0.094972 -0.142916 -0.985168 123 98 76 255 4
0.194970 -0.016932 -0.031681 -0.068259 -0.164418 -0.984026 123 97 74 255 4
0.190367 -0.018906 -0.032078 -0.024992 -0.238461 -0.970830 123 96 73 255 4
0.185786 -0.020609 -0.032097 0.054901 -0.330831 -0.942092 123 97 74 255 4
0.181199 -0.022402 -0.032242 0.087625 -0.390741 -0.916321 124 97 75 255 4
0.176620 -0.024104 -0.032261 0.151145 -0.447863 -0.881234 124 98 75 255 4
0.172035 -0.025896 -0.032406 0.185138 -0.490928 -0.851301 125 99 76 255 4
0.167456 -0.027598 -0.032425 0.157645 -0.488609 -0.858143 126 98 75 255 4
0.162873 -0.029390 -0.032570 0.121952 -0.482488 -0.867371 125 98 75 255 4
0.158295 -0.031092 -0.032589 0.078861 -0.480163 -0.873627 126 99 75 255 4
0.153735 -0.032524 -0.032229 0.033804 -0.471515 -0.881210 128 101 76 255 4
0.149196 -0.033596 -0.031365 -0.008264 -0.465943 -0.884776 129 102 76 255 4
0.144665 -0.034490 -0.030248 -0.035951 -0.462532 -0.885874 128 102 76 255 4
0.140126 -0.035475 -0.029257 -0.066034 -0.468820 -0.880822 127 102 77 255 4
0.135583 -0.036461 -0.028266 -0.086940 -0.478416 -0.873819 126 101 76 255 4
0.131039 -0.037448 -0.027275 -0.098006 -0.490411 -0.865963 127 102 76 255 4
0.126491 -0.038436 -0.026284 -0.109323 -0.499585 -0.859339 127 102 76 255 4
0.121944 -0.039336 -0.025167 -0.123346 -0.506638 -0.853290 126 102 76 255 4
0.117399 -0.040147 -0.023924 -0.137534 -0.512063 -0.847865 126 101 76 255 4
0.112857 -0.040781 -0.022427 -0.150333 -0.516007 -0.843289 126 101 76 255 4
0.108308 -0.041506 -0.021057 -0.158984 -0.520274 -0.839070 125 101 76 255 4
0.103751 -0.042321 -0.019813 -0.160994 -0.525899 -0.835171 127 101 75 255 4
0.099193 -0.043049 -0.018443 -0.160815 -0.531046 -0.831943 127 101 75 255 4
0.094632 -0.043778 -0.017073 -0.156427 -0.536970 -0.828972 127 101 75 255 4
0.090064 -0.044597 -0.015829 -0.146334 -0.546149 -0.824808 127 102 75 255 4
0.085494 -0.045329 -0.014458 -0.134144 -0.558009 -0.818921 128 102 76 255 4
0.080919 -0.046151 -0.013214 -0.118737 -0.570893 -0.812393 126 102 75 255 4
0.076339 -0.046974 -0.011970 -0.099079 -0.586429 -0.803918 125 101 74 255 4
0.071750 -0.048064 -0.011104 -0.078696 -0.606362 -0.791285 125 100 74 255 4
0.067163 -0.048979 -0.009986 -0.061791 -0.626406 -0.777044 125 100 74 255 4
0.062573 -0.049805 -0.008741 -0.048918 -0.647703 -0.760321 125 100 74 255 4
0.057979 -0.050722 -0.007623 -0.044760 -0.662056 -0.748117 124 100 73 255 4
0.053381 -0.051639 -0.006504 -0.035725 -0.678539 -0.733695 123 99 72 255 4
0.048780 -0.052558 -0.005385 -0.020145 -0.692003 -0.721614 122 98 72 255 4
0.044176 -0.053478 -0.004267 0.004236 -0.703494 -0.710689 121 97 71 255 4
0.039568 -0.054575 -0.003401 0.027881 -0.712554 -0.701063 120 96 70 255 4
0.034957 -0.055585 -0.002408 0.059509 -0.721799 -0.689539 120 95 70 255 4
0.030343 -0.056948 -0.001921 0.084225 -0.733505 -0.674446 119 94 69 255 4
0.025728 -0.058399 -0.001560 0.115212 -0.743946 -0.658233 118 93 67 255 4
0.021111 -0.059587 -0.000820 0.157332 -0.751120 -0.641144 118 93 67 255 4
0.016493 -0.060864 -0.000206 0.210573 -0.758302 -0.616958 117 92 66 255 4
0.011872 -0.061966 0.000660 0.250565 -0.767677 -0.589821 117 92 66 255 4
0.007258 -0.064120 0.000010 0.284243 -0.779552 -0.558126 116 91 65 255 4
0.002647 -0.066273 -0.000640 0.313722 -0.787640 -0.530285 116 91 65 255 4
-0.001964 -0.068338 -0.001163 0.325373 -0.803241 -0.498936 116 90 65 255 4
-0.006583 -0.069703 -0.000676 0.330607 -0.817353 -0.471840 116 90 65 255 4
-0.011199 -0.071330 -0.000567 0.324118 -0.832111 -0.450043 116 90 65 255 4
-0.015815 -0.072957 -0.000459 0.315091 -0.842657 -0.436631 114 89 65 255 4
-0.020429 -0.074672 -0.000477 0.307808 -0.853140 -0.421197 113 90 65 255 4
-0.025042 -0.076386 -0.000495 0.304798 -0.856197 -0.417163 112 90 64 255 4
-0.029655 -0.078100 -0.000513 0.300185 -0.858015 -0.416772 111 89 63 255 4
-0.034271 -0.079727 -0.000405 0.287958 -0.862651 -0.415829 112 90 64 255 4
-0.038889 -0.081268 -0.000170 0.264881 -0.871161 -0.413421 112 89 64 255 4
-0.043507 -0.082808 0.000064 0.232395 -0.883079 -0.407632 111 90 64 255 4
-0.048120 -0.084522 0.000046 0.198375 -0.894375 -0.400924 111 88 63 255 4
-0.052756 -0.085629 0.000913 0.159872 -0.907203 -0.389133 111 88 63 255 4
-0.057402 -0.086563 0.002033 0.125105 -0.917709 -0.377039 110 87 62 255 4
-0.062050 -0.087499 0.003152 0.100401 -0.924240 -0.368376 110 87 62 255 4
-0.066702 -0.088436 0.004272 0.087117 -0.927402 -0.363780 109 86 61 255 4
-0.071370 -0.089115 0.005771 0.083307 -0.928021 -0.363095 109 86 61 255 4
-0.076016 -0.090313 0.006512 0.081861 -0.928264 -0.362800 109 85 60 255 4
-0.080659 -0.091598 0.007126 0.079113 -0.929125 -0.361203 109 86 60 255 4
-0.085319 -0.092625 0.008120 0.076330 -0.928857 -0.362488 109 85 60 255 4
-0.090006 -0.093223 0.009746 0.066698 -0.931701 -0.357050 109 85 60 255 4
-0.094698 -0.093822 0.011372 0.063994 -0.945085 -0.320497 107 84 59 255 4
-0.099395 -0.094423 0.012998 0.061838 -0.958214 -0.279289 108 85 60 255 4
-0.104119 -0.094682 0.015130 0.063844 -0.964993 -0.254386 107 84 60 255 4
-0.108832 -0.095201 0.016883 0.081144 -0.967276 -0.240401 107 84 60 255 4
-0.113539 -0.095893 0.018383 0.103207 -0.966758 -0.233940 106 84 60 255 4
-0.118224 -0.096929 0.019377 0.126661 -0.964489 -0.231770 106 83 59 255 4
-0.122913 -0.097967 0.020371 0.145445 -0.960985 -0.235273 107 83 59 255 4
-0.127578 -0.099348 0.020860 0.147073 -0.959318 -0.240995 107 83 58 255 4
-0.132251 -0.100644 0.021475 0.133712 -0.960107 -0.245592 108 83 58 255 4
-0.136918 -0.102026 0.021963 0.122443 -0.959607 -0.253303 109 84 59 255 4
-0.141660 -0.102554 0.023717 0.117735 -0.962715 -0.243554 110 84 59 255 4
-0.146421 -0.102914 0.025724 0.124624 -0.962240 -0.241997 110 84 58 255 4
-0.151180 -0.103361 0.027604 0.140572 -0.961001 -0.238151 111 84 58 255 4
-0.155867 -0.104662 0.028219 0.161967 -0.951877 -0.260186 111 84 58 255 4
-0.160556 -0.105963 0.028834 0.189468 -0.939926 -0.283972 111 83 58 255 4
-0.165254 -0.107180 0.029576 0.208830 -0.928383 -0.307399 110 83 57 255 4
-0.169963 -0.108313 0.030445 0.213488 -0.920102 -0.328383 110 83 57 255 4
-0.174657 -0.109616 0.031060 0.205628 -0.916206 -0.343924 111 83 57 255 4
-0.179334 -0.111089 0.031423 0.193631 -0.914297 -0.355764 111 83 58 255 4
-0.184013 -0.112563 0.031785 0.183906 -0.912694 -0.364923 111 83 58 255 4
-0.188729 -0.113698 0.032654 0.180715 -0.910945 -0.370838 111 81 57 255 4
-0.193448 -0.114834 0.033522 0.177146 -0.908451 -0.378598 112 82 58 255 4
-0.198160 -0.116055 0.034265 0.188750 -0.901996 -0.388300 112 82 57 255 4
-0.202883 -0.117193 0.035133 0.216878 -0.888418 -0.404570 112 83 58 255 4
-0.207609 -0.118332 0.036002 0.262354 -0.864903 -0.427917 114 84 59 255 4
-0.212347 -0.119387 0.036998 0.311616 -0.834438 -0.454541 114 85 58 255 4
-0.216953 -0.121538 0.036348 0.353815 -0.792843 -0.496200 116 86 58 255 4
-0.221545 -0.123772 0.035571 0.391851 -0.761957 -0.515630 117 86 59 255 4
-0.226146 -0.125922 0.034921 0.414820 -0.731447 -0.541211 117 87 59 255 4
-0.230744 -0.128070 0.034271 0.428905 -0.705223 -0.564537 119 87 60 255 4
-0.235328 -0.130302 0.033494 0.442296 -0.676615 -0.588698 120 90 63 255 4
-0.239921 -0.132449 0.032844 0.463492 -0.623168 -0.629950 123 92 66 255 3
-0.244477 -0.134846 0.031814 0.449244 -0.578979 -0.680414 127 96 70 255 2
-0.248910 -0.138079 0.029518 0.351787 -0.545937 -0.760394 130 100 73 255 2
-0.253432 -0.140640 0.028234 0.276996 -0.522350 -0.806488 130 101 74 255 2
-0.258134 -0.141946 0.028850 0.164955 -0.518085 -0.839272 131 104 76 255 2
-0.262825 -0.143336 0.029339 0.026605 -0.496223 -0.867788 130 103 75 255 2
-0.267517 -0.144727 0.029828 -0.107858 -0.481579 -0.869740 128 103 76 255 2
-0.272300 -0.145534 0.031204 -0.274330 -0.452705 -0.848411 127 103 76 255 2
-0.277244 -0.145343 0.034099 -0.413471 -0.431412 -0.801826 126 103 76 255 2
-0.282210 -0.145072 0.037121 -0.537840 -0.405754 -0.738980 125 103 76 255 2
-0.287334 -0.143889 0.041536 -0.626326 -0.395994 -0.671494 124 101 75 255 2
-0.292526 -0.142379 0.046459 -0.700847 -0.381772 -0.602548 119 98 72 255 2
-0.297747 -0.140791 0.051508 -0.748817 -0.364710 -0.553407 111 91 66 255 2
-0.303138 -0.138296 0.057951 -0.779612 -0.339559 -0.526218 107 85 61 255 2
-0.308978 -0.133322 0.068194 -0.815454 -0.326120 -0.478206 95 78 56 255 2
-0.485160 -0.225939 0.028492 0.176871 0.051953 -0.982862 121 93 67 255 2
-0.489068 -0.230218 0.024415 0.148719 0.022871 -0.988615 126 100 75 255 2
-0.493256 -0.233453 0.021986 0.095378 0.002634 -0.995438 127 107 83 255 2
-0.497708 -0.235726 0.021080 -0.004989 -0.028280 -0.999588 128 104 82 255 2
-0.502615 -0.236401 0.022711 -0.121487 -0.035573 -0.991955 133 106 84 255 2
-0.507527 -0.237078 0.024342 -0.282071 -0.051303 -0.958021 137 110 88 255 2
-0.512537 -0.237437 0.026481 -0.342541 -0.039824 -0.938658 137 110 89 255 2
-0.517624 -0.237560 0.029001 -0.353412 -0.041981 -0.934525 135 115 91 255 2
-0.522695 -0.237766 0.031394 -0.311110 -0.004797 -0.950362 135 116 92 255 2
-0.527749 -0.238053 0.033660 -0.223859 0.036074 -0.973954 133 116 92 255 2
-0.532569 -0.239137 0.034657 -0.121468 0.065293 -0.990446 135 116 93 255 2
-0.537294 -0.240539 0.035147 -0.029242 0.099231 -0.994635 140 121 98 255 2
-0.541947 -0.242179 0.035256 0.062291 0.115440 -0.991359 140 127 106 255 2
-0.546329 -0.244691 0.033969 0.097016 0.170452 -0.980578 143 126 105 255 2
-0.550606 -0.247518 0.032175 0.136249 0.209956 -0.968171 143 125 105 255 2
-0.554801 -0.250579 0.029999 0.103204 0.243980 -0.964273 135 113 94 255 2
-0.559091 -0.253322 0.028331 0.083410 0.236119 -0.968138 130 100 85 255 2
-0.563656 -0.255195 0.028060 0.089887 0.222242 -0.970839 124 95 77 255 2
-0.562972 -0.273152 0.001893 0.451585 -0.570942 -0.685636 104 84 65 255 2
-0.567261 -0.275719 0.000478 0.339030 -0.624705 -0.703422 115 74 61 255 2
-0.571936 -0.277103 0.000967 0.275339 -0.647150 -0.710904 125 85 63 255 2
-0.576612 -0.278488 0.001455 -0.443097 -0.788337 -0.426837 120 86 64 255 2
-0.581449 -0.279402 0.002706 -0.600315 -0.741717 -0.299128 111 77 57 255 2
-0.587011 -0.278198 0.007384 -0.737427 -0.670168 -0.084124 89 69 51 255 2
0.652136 0.210111 0.061431 -0.057272 -0.394099 -0.917282 113 89 62 255 3
0.647348 0.208248 0.061291 -0.053158 -0.391536 -0.918626 115 87 62 255 3
0.642640 0.206676 0.061528 -0.076420 -0.442142 -0.893683 116 85 62 255 3
0.638269 0.206363 0.063400 -0.093323 -0.475779 -0.874600 113 82 59 255 3
0.633893 0.206049 0.065273 -0.108489 -0.541426 -0.833719 113 82 59 255 3
0.629307 0.204958 0.066140 -0.118057 -0.607390 -0.785583 115 83 60 255 3
0.624718 0.203867 0.067006 -0.116469 -0.664428 -0.738221 113 82 59 255 3
0.620252 0.203257 0.068502 -0.152811 -0.726896 -0.669531 110 79 56 255 3
0.615782 0.202646 0.069998 -0.199237 -0.749301 -0.631548 105 75 54 255 3
0.611333 0.202131 0.071620 -0.253737 -0.802171 -0.540499 105 75 54 255 3
0.607124 0.202577 0.074500 -0.357699 -0.838500 -0.411059 85 61 42 255 3
0.603102 0.203790 0.078388 -0.457668 -0.854969 -0.244065 85 61 42 255 3
0.599406 0.206347 0.084039 -0.501361 -0.852159 -0.149876 79 58 41 255 3
0.595812 0.209379 0.090319 -0.524061 -0.842714 -0.123259 77 60 43 255 3
0.592056 0.211827 0.095845 -0.541768 -0.836943 -0.077553 77 60 43 255 3
0.319973 0.055287 0.014850 -0.857068 -0.011204 0.515082 99 99 87 255 4
0.312369 0.031903 -0.014814 -0.724709 0.164573 0.669113 98 98 86 255 4
0.307559 0.028716 -0.016851 0.665721 -0.225146 -0.711424 98 97 86 255 4
0.302755 0.025531 -0.018888 0.599182 -0.243757 -0.762603 104 103 91 255 4
0.297959 0.022349 -0.020925 0.543056 -0.239568 -0.804796 106 106 94 255 4
0.293157 0.019077 -0.023089 0.485540 -0.228386 -0.843855 106 106 94 255 4
0.288375 0.015899 -0.025126 0.427480 -0.190003 -0.883833 106 106 95 255 4
0.283667 0.013275 -0.026407 0.378568 -0.170356 -0.909761 105 105 94 255 4
0.278996 0.010926 -0.027309 0.299013 -0.172513 -0.938526 108 108 97 255 4
0.274340 0.008671 -0.028084 0.232542 -0.177146 -0.956318 107 107 96 255 4
0.269719 0.006691 -0.028482 0.216804 -0.196638 -0.956206 111 112 100 255 4
0.265099 0.004711 -0.028879 0.205512 -0.242548 -0.948122 114 114 103 255 4
0.260492 0.002823 -0.029151 0.228940 -0.258770 -0.938416 113 113 101 255 4
0.255875 0.000845 -0.029548 0.249137 -0.281388 -0.926688 113 112 101 255 4
0.251231 -0.001406 -0.030324 0.251745 -0.300239 -0.920044 111 111 99 255 4
0.246569 -0.003839 -0.031353 0.253571 -0.333393 -0.908048 108 108 97 255 4
0.241912 -0.006271 -0.032382 0.258034 -0.360357 -0.896416 109 109 98 255 4
0.237313 -0.008155 -0.032653 0.271015 -0.373293 -0.887245 109 109 98 255 4
0.232735 -0.009857 -0.032672 0.303384 -0.376100 -0.875504 112 111 100 255 4
0.228049 -0.012649 -0.034206 0.308594 -0.357375 -0.881506 116 116 105 255 4
0.223369 -0.015440 -0.035740 0.264320 -0.315382 -0.911411 117 118 106 255 4
