ply
format ascii 1.0
comment Created by labeled_geometry.py
element vertex 646
property float x
property float y
property float z
property float nx
property float ny
property float nz
property uchar red
property uchar green
property uchar blue
property uchar alpha
property uchar label
end_header
-0.337065 -0.228198 0.016576 -0.368792 0.194683 -0.908895 115 86 62 255 3
-0.337038 -0.231782 0.015950 -0.395973 0.142702 -0.907106 113 85 61 255 3
-0.337010 -0.235364 0.015323 -0.414076 0.084203 -0.906339 111 83 60 255 3
-0.337055 -0.238944 0.014580 -0.441858 0.028653 -0.896627 109 82 59 255 3
-0.336521 -0.242527 0.014766 -0.468933 -0.047828 -0.881938 106 79 57 255 3
-0.335987 -0.246110 0.014953 -0.494992 -0.135565 -0.858257 104 76 56 255 3
-0.335526 -0.249693 0.015023 -0.528112 -0.232644 -0.816685 101 73 54 255 3
-0.334557 -0.253285 0.015906 -0.557937 -0.320063 -0.765680 99 72 52 255 3
-0.333587 -0.256880 0.016789 -0.580314 -0.401945 -0.708291 98 71 51 255 3
-0.332255 -0.260485 0.018253 -0.613423 -0.496498 -0.614168 97 69 50 255 3
-0.330777 -0.264099 0.019949 -0.611064 -0.566824 -0.552549 97 69 49 255 3
-0.328645 -0.267735 0.022690 -0.630339 -0.644894 -0.432186 93 67 48 255 3
-0.325932 -0.271398 0.026360 -0.620316 -0.685825 -0.380595 95 69 50 255 3
-0.320603 -0.275155 0.034211 -0.616667 -0.710802 -0.338352 85 70 50 255 3
-0.384005 0.239652 0.035552 -0.719138 0.536924 -0.441082 79 65 48 255 3
-0.387441 0.234719 0.029093 -0.716849 0.485996 -0.499935 87 61 44 255 3
-0.388791 0.230527 0.026132 -0.696032 0.457875 -0.553073 92 64 46 255 3
-0.389655 0.226512 0.023987 -0.666550 0.347661 -0.659426 99 69 50 255 3
-0.390311 0.222574 0.022193 -0.615916 0.263746 -0.742351 103 73 53 255 3
-0.390409 0.218830 0.021331 -0.575421 0.206716 -0.791303 107 78 57 255 3
-0.390439 0.215112 0.020585 -0.499132 0.087040 -0.862144 110 80 59 255 3
-0.390190 0.211488 0.020306 -0.452615 0.021301 -0.891452 113 83 60 255 3
-0.389871 0.207888 0.020144 -0.390040 -0.069325 -0.918185 115 86 62 255 3
-0.389273 0.204379 0.020447 -0.346041 -0.118962 -0.930647 115 87 63 255 3
-0.388465 0.200936 0.021101 -0.307598 -0.166586 -0.936821 116 89 65 255 3
-0.387797 0.197447 0.021521 -0.278577 -0.212074 -0.936707 118 91 66 255 3
-0.387059 0.193978 0.022058 -0.256234 -0.247711 -0.934336 121 94 69 255 3
-0.386112 0.190574 0.022945 -0.234667 -0.277398 -0.931655 121 94 69 255 3
-0.385234 0.187144 0.023715 -0.213433 -0.297217 -0.930650 121 94 69 255 3
-0.384285 0.183734 0.024601 -0.188275 -0.327304 -0.925972 119 92 68 255 3
-0.383197 0.180363 0.025721 -0.149078 -0.374666 -0.915096 120 93 67 255 3
-0.381968 0.177031 0.027074 -0.108802 -0.420046 -0.900957 120 91 66 255 3
-0.380809 0.173674 0.028310 -0.064929 -0.475394 -0.877374 115 87 62 255 3
-0.379160 0.170458 0.030362 -0.016520 -0.537012 -0.843413 107 81 58 255 3
-0.377230 0.167318 0.032880 -0.002040 -0.553609 -0.832774 101 76 55 255 3
-0.374039 0.164539 0.037496 0.019228 -0.571565 -0.820331 89 74 57 255 3
-0.335359 -0.188824 0.033427 -0.086872 0.570579 -0.816635 101 80 60 255 3
-0.336623 -0.192476 0.030706 -0.118520 0.553235 -0.824551 102 75 54 255 3
-0.337744 -0.196116 0.028217 -0.147382 0.504967 -0.850463 109 82 60 255 3
-0.338362 -0.199737 0.026542 -0.188576 0.426287 -0.884714 115 86 63 255 3
-0.338764 -0.203348 0.025217 -0.223791 0.377546 -0.898542 118 89 64 255 3
-0.339167 -0.206956 0.023891 -0.248305 0.335612 -0.908685 118 90 65 255 3
-0.339425 -0.210557 0.022799 -0.270043 0.313872 -0.910253 118 90 65 255 3
-0.339685 -0.214155 0.021706 -0.289992 0.291295 -0.911620 119 90 65 255 3
-0.339944 -0.217749 0.020613 -0.309486 0.268216 -0.912293 118 90 65 255 3
-0.340204 -0.221340 0.019520 -0.328794 0.245004 -0.912068 117 89 64 255 3
-0.340320 -0.224927 0.018660 -0.348807 0.212886 -0.912696 116 87 63 255 3
-0.340291 -0.228511 0.018033 -0.376439 0.169561 -0.910792 114 85 61 255 3
-0.340336 -0.232093 0.017289 -0.400654 0.117515 -0.908662 113 84 60 255 3
-0.340380 -0.235673 0.016546 -0.421142 0.049298 -0.905654 110 82 59 255 3
-0.340063 -0.239253 0.016383 -0.448948 -0.006753 -0.893533 107 80 58 255 3
-0.339530 -0.242835 0.016570 -0.480102 -0.092292 -0.872344 105 77 56 255 3
-0.339141 -0.246415 0.016524 -0.506652 -0.189792 -0.841001 103 75 55 255 3
-0.338318 -0.250002 0.017176 -0.537395 -0.278907 -0.795875 100 72 53 255 3
-0.337350 -0.253593 0.018060 -0.560759 -0.363159 -0.744087 98 70 51 255 3
-0.336237 -0.257190 0.019177 -0.586581 -0.450487 -0.673042 99 70 51 255 3
-0.334761 -0.260799 0.020875 -0.594107 -0.525904 -0.608655 97 69 49 255 3
-0.332779 -0.264425 0.023387 -0.614816 -0.626060 -0.479635 95 68 48 255 3
-0.330360 -0.268072 0.026596 -0.613747 -0.678663 -0.403399 93 67 48 255 3
-0.326202 -0.271780 0.032595 -0.609673 -0.708601 -0.355223 95 72 52 255 3
-0.266538 0.281493 0.239898 -0.373712 0.884232 -0.280132 73 68 53 255 3
-0.388633 0.234890 0.033935 -0.698164 0.528089 -0.483413 83 61 44 255 3
-0.390952 0.230359 0.029337 -0.699643 0.477301 -0.531680 88 61 44 255 3
-0.392231 0.226200 0.026490 -0.669646 0.394322 -0.629352 97 67 48 255 3
-0.392954 0.222239 0.024576 -0.633767 0.323102 -0.702812 101 72 52 255 3
-0.393399 0.218378 0.023129 -0.578974 0.226526 -0.783247 105 76 55 255 3
-0.393428 0.214661 0.022383 -0.529906 0.156203 -0.833547 108 79 58 255 3
-0.393387 0.210969 0.021754 -0.482895 0.079904 -0.872025 112 82 59 255 3
-0.393068 0.207370 0.021591 -0.416404 -0.024097 -0.908860 113 85 62 255 3
-0.392680 0.203795 0.021545 -0.364648 -0.084370 -0.927315 113 86 63 255 3
-0.391943 0.200332 0.022083 -0.319776 -0.151749 -0.935262 115 88 65 255 3
-0.391137 0.196890 0.022737 -0.285460 -0.193562 -0.938641 115 90 66 255 3
-0.390469 0.193401 0.023158 -0.258801 -0.230694 -0.937978 118 92 68 255 3
-0.389593 0.189976 0.023929 -0.236320 -0.262059 -0.935670 120 95 70 255 3
-0.388646 0.186571 0.024817 -0.212176 -0.289506 -0.933363 120 95 70 255 3
-0.387769 0.183141 0.025588 -0.192046 -0.308189 -0.931739 119 92 67 255 3
-0.386752 0.179751 0.026592 -0.158956 -0.344893 -0.925085 119 92 67 255 3
-0.385595 0.176401 0.027830 -0.126091 -0.387406 -0.913246 120 91 66 255 3
-0.384367 0.173067 0.029184 -0.083287 -0.442069 -0.893106 116 88 63 255 3
-0.383070 0.169749 0.030655 -0.026220 -0.512355 -0.858373 108 82 58 255 3
-0.381143 0.166613 0.033176 -0.000267 -0.545686 -0.837990 104 78 57 255 3
-0.379006 0.163530 0.036047 0.026210 -0.555745 -0.830939 94 72 54 255 3
-0.336188 -0.185461 0.039486 -0.068135 0.597510 -0.798961 86 76 59 255 3
-0.339532 -0.189185 0.033384 -0.100557 0.571255 -0.814590 108 78 57 255 3
-0.340650 -0.192829 0.030892 -0.128250 0.522296 -0.843065 105 77 56 255 3
-0.341697 -0.196463 0.028517 -0.171364 0.433909 -0.884510 115 86 63 255 3
-0.342097 -0.200076 0.027190 -0.196065 0.400130 -0.895240 117 88 64 255 3
-0.342426 -0.203682 0.025980 -0.231521 0.347186 -0.908768 118 89 65 255 3
-0.342828 -0.207287 0.024653 -0.246863 0.321142 -0.914290 119 90 65 255 3
-0.343014 -0.210884 0.023676 -0.268414 0.294346 -0.917232 119 91 65 255 3
-0.343200 -0.214478 0.022698 -0.285930 0.272248 -0.918763 120 92 66 255 3
-0.343386 -0.218069 0.021721 -0.304620 0.249568 -0.919197 119 90 65 255 3
-0.343645 -0.221658 0.020627 -0.325505 0.224958 -0.918390 117 88 63 255 3
-0.343616 -0.225242 0.019999 -0.347368 0.188494 -0.918589 115 86 61 255 3
-0.343660 -0.228824 0.019254 -0.376769 0.142855 -0.915226 114 84 61 255 3
-0.343703 -0.232404 0.018510 -0.396656 0.083630 -0.914150 112 83 60 255 3
-0.343603 -0.235983 0.017998 -0.429545 0.021117 -0.902798 110 81 59 255 3
-0.343070 -0.239562 0.018185 -0.465253 -0.046448 -0.883958 108 79 59 255 3
-0.342681 -0.243141 0.018139 -0.485743 -0.144623 -0.862054 105 77 57 255 3
-0.342075 -0.246723 0.018443 -0.518308 -0.234715 -0.822354 102 74 54 255 3
-0.341109 -0.250311 0.019328 -0.548786 -0.345725 -0.761123 99 72 53 255 3
-0.340214 -0.253900 0.020097 -0.567513 -0.406863 -0.715816 98 70 51 255 3
-0.338742 -0.257504 0.021797 -0.581482 -0.501295 -0.640767 98 69 50 255 3
-0.337124 -0.261116 0.023730 -0.600849 -0.578485 -0.551666 97 68 49 255 3
-0.334855 -0.264750 0.026710 -0.601221 -0.658427 -0.452777 94 66 48 255 3
-0.331428 -0.268426 0.031552 -0.602277 -0.700762 -0.382355 96 70 50 255 3
-0.205999 -0.275731 0.232748 -0.154401 -0.955462 -0.251501 73 66 50 255 3
-0.387751 0.235786 0.042289 -0.703819 0.548854 -0.450998 80 64 48 255 3
-0.392976 0.230239 0.032777 -0.698257 0.509726 -0.502611 87 59 43 255 3
-0.394459 0.226007 0.029576 -0.673294 0.455782 -0.582184 92 64 45 255 3
-0.395527 0.221928 0.027076 -0.652744 0.367626 -0.662402 98 69 49 255 3
-0.396179 0.217996 0.025277 -0.608218 0.299316 -0.735174 104 74 54 255 3
-0.396415 0.214210 0.024180 -0.558079 0.213164 -0.801941 108 79 58 255 3
-0.396513 0.210473 0.023316 -0.496918 0.111581 -0.860594 110 81 59 255 3
-0.396263 0.206853 0.023036 -0.451834 0.025236 -0.891745 112 84 62 255 3
-0.395945 0.203257 0.022874 -0.385157 -0.063658 -0.920653 113 86 64 255 3
-0.395348 0.199751 0.023178 -0.333327 -0.119071 -0.935262 114 87 64 255 3
-0.394542 0.196311 0.023834 -0.290848 -0.167024 -0.942078 115 89 65 255 3
-0.393806 0.192846 0.024372 -0.258766 -0.210078 -0.942819 117 91 67 255 3
-0.393000 0.189402 0.025027 -0.233127 -0.244251 -0.941272 118 92 67 255 3
-0.392125 0.185977 0.025799 -0.208566 -0.272748 -0.939206 120 94 69 255 3
-0.391179 0.182571 0.026688 -0.185311 -0.298552 -0.936230 119 92 67 255 3
-0.390303 0.179140 0.027459 -0.162582 -0.321446 -0.932866 118 91 66 255 3
-0.389147 0.175792 0.028699 -0.135290 -0.359064 -0.923455 118 90 65 255 3
-0.388061 0.172418 0.029821 -0.086447 -0.417791 -0.904421 116 89 64 255 3
-0.386905 0.169062 0.031060 -0.024922 -0.490355 -0.871166 111 84 60 255 3
-0.385121 0.165887 0.033350 0.000617 -0.527065 -0.849825 108 79 56 255 3
-0.383197 0.162746 0.035874 0.017560 -0.544383 -0.838653 106 74 55 255 3
-0.379389 0.160143 0.041551 0.040608 -0.567697 -0.822235 83 73 55 255 3
-0.342226 -0.185887 0.036412 -0.069624 0.587949 -0.805896 100 79 59 255 3
-0.343556 -0.189542 0.033568 -0.105087 0.552080 -0.827143 107 76 54 255 3
-0.344743 -0.193183 0.030957 -0.138827 0.497003 -0.856572 110 82 60 255 3
-0.345357 -0.196803 0.029279 -0.179575 0.421419 -0.888909 117 88 65 255 3
-0.345757 -0.200412 0.027951 -0.208330 0.367271 -0.906482 119 90 65 255 3
-0.346156 -0.204017 0.026623 -0.232736 0.324929 -0.916654 120 90 66 255 3
-0.346413 -0.207616 0.025528 -0.250378 0.300416 -0.920359 121 91 67 255 3
-0.346598 -0.211210 0.024549 -0.266694 0.277242 -0.923045 121 92 66 255 3
-0.346712 -0.214801 0.023687 -0.283363 0.253816 -0.924815 119 90 65 255 3
-0.346897 -0.218389 0.022709 -0.300533 0.231010 -0.925372 118 90 65 255 3
-0.347011 -0.221975 0.021847 -0.323340 0.204578 -0.923904 116 87 63 255 3
-0.346982 -0.225556 0.021218 -0.348926 0.167362 -0.922085 114 84 61 255 3
-0.347025 -0.229137 0.020473 -0.373424 0.119610 -0.919917 112 83 60 255 3
-0.347068 -0.232715 0.019728 -0.403128 0.055072 -0.913485 111 81 59 255 3
-0.346607 -0.236292 0.019798 -0.436222 -0.017863 -0.899662 108 79 58 255 3
-0.346218 -0.239870 0.019752 -0.471669 -0.100029 -0.876084 107 79 58 255 3
-0.345902 -0.243447 0.019590 -0.500971 -0.204999 -0.840835 104 76 56 255 3
-0.344865 -0.247032 0.020593 -0.532627 -0.300774 -0.791103 100 73 53 255 3
-0.344043 -0.250617 0.021246 -0.551921 -0.361206 -0.751607 99 71 52 255 3
-0.342717 -0.254214 0.022715 -0.580515 -0.491560 -0.649132 97 69 51 255 3
-0.341247 -0.257817 0.024417 -0.583969 -0.577400 -0.570604 98 69 50 255 3
-0.339126 -0.261441 0.027168 -0.593883 -0.655493 -0.466511 94 65 47 255 3
-0.336139 -0.265095 0.031317 -0.591137 -0.698316 -0.403622 95 67 49 255 3
-0.330408 -0.268838 0.039894 -0.593352 -0.723003 -0.353837 84 68 50 255 3
-0.394518 0.230286 0.037038 -0.687131 0.529242 -0.497749 85 62 45 255 3
-0.396689 0.225814 0.032664 -0.677329 0.504403 -0.535540 90 62 44 255 3
-0.397962 0.221663 0.029810 -0.664486 0.425385 -0.614415 95 67 48 255 3
-0.398750 0.217685 0.027775 -0.630861 0.351045 -0.691940 100 72 52 255 3
-0.399262 0.213806 0.026209 -0.583330 0.255670 -0.770947 105 76 55 255 3
-0.399428 0.210047 0.025227 -0.534742 0.182296 -0.825118 108 79 58 255 3
-0.399387 0.206359 0.024596 -0.484234 0.100588 -0.869137 111 83 62 255 3
-0.399137 0.202742 0.024317 -0.407614 -0.012861 -0.913064 112 85 62 255 3
-0.398749 0.199170 0.024271 -0.347625 -0.075363 -0.934600 113 86 63 255 3
-0.397945 0.195732 0.024927 -0.292983 -0.144023 -0.945208 114 88 64 255 3
-0.397210 0.192270 0.025466 -0.256552 -0.184877 -0.948684 117 90 66 255 3
-0.396405 0.188827 0.026122 -0.227885 -0.222323 -0.947967 119 91 67 255 3
-0.395600 0.185383 0.026778 -0.206507 -0.252944 -0.945185 120 93 67 255 3
-0.394725 0.181957 0.027550 -0.185012 -0.278925 -0.942323 120 92 66 255 3
-0.393850 0.178529 0.028323 -0.160407 -0.301618 -0.939838 118 91 66 255 3
-0.392835 0.175141 0.029330 -0.127524 -0.339529 -0.931911 117 90 64 255 3
-0.391682 0.171792 0.030570 -0.104757 -0.381513 -0.918409 116 88 63 255 3
-0.390527 0.168438 0.031811 -0.055320 -0.443867 -0.894384 112 84 61 255 3
-0.389164 0.165142 0.033402 0.002131 -0.515595 -0.856830 110 79 56 255 3
-0.387173 0.162025 0.036046 0.014191 -0.528143 -0.849037 110 73 51 255 3
-0.384556 0.159081 0.039742 0.034179 -0.547348 -0.836207 96 73 53 255 3
-0.343061 -0.182523 0.042476 -0.053613 0.593817 -0.802812 81 75 58 255 3
-0.346462 -0.186254 0.036244 -0.088076 0.566116 -0.819607 103 77 57 255 3
-0.347646 -0.189899 0.033631 -0.117772 0.521424 -0.845131 109 77 55 255 3
-0.348616 -0.193531 0.031367 -0.163282 0.436033 -0.884994 114 85 62 255 3
-0.349014 -0.197142 0.030037 -0.187525 0.397080 -0.898422 119 90 66 255 3
-0.349412 -0.200748 0.028707 -0.220698 0.338363 -0.914769 120 91 66 255 3
-0.349739 -0.204349 0.027494 -0.235438 0.314008 -0.919765 121 91 67 255 3
-0.349923 -0.207944 0.026515 -0.254148 0.284557 -0.924357 121 92 67 255 3
-0.350107 -0.211535 0.025535 -0.268893 0.261208 -0.927075 121 92 66 255 3
-0.350291 -0.215124 0.024556 -0.283194 0.237353 -0.929228 119 91 66 255 3
-0.350476 -0.218710 0.023576 -0.298790 0.210965 -0.930708 118 89 64 255 3
-0.350446 -0.222292 0.022947 -0.321913 0.181696 -0.929171 115 86 62 255 3
-0.350416 -0.225871 0.022318 -0.345824 0.138481 -0.928024 113 84 61 255 3
-0.350387 -0.229449 0.021688 -0.375371 0.082137 -0.923228 111 83 60 255 3
-0.350142 -0.233025 0.021409 -0.409013 0.014600 -0.912412 109 80 58 255 3
-0.349825 -0.236601 0.021247 -0.452145 -0.058357 -0.890033 108 78 57 255 3
-0.349437 -0.240177 0.021201 -0.477740 -0.159453 -0.863909 106 77 56 255 3
-0.348689 -0.243756 0.021738 -0.514975 -0.253914 -0.818736 102 75 54 255 3
-0.347869 -0.247338 0.022392 -0.541571 -0.342365 -0.767780 100 72 53 255 3
-0.346689 -0.250928 0.023630 -0.568195 -0.440741 -0.694911 98 71 51 255 3
-0.345221 -0.254527 0.025334 -0.574266 -0.524566 -0.628529 96 69 50 255 3
-0.343392 -0.258138 0.027621 -0.591592 -0.605196 -0.532688 94 67 48 255 3
-0.340843 -0.261773 0.031075 -0.588738 -0.676027 -0.443143 93 64 47 255 3
-0.336492 -0.265464 0.037445 -0.588052 -0.718293 -0.371819 92 69 50 255 3
-0.279743 0.270679 0.238532 -0.367641 0.910927 -0.187220 79 64 49 255 3
-0.398989 0.225597 0.035636 -0.683175 0.523407 -0.509231 85 59 43 255 3
-0.400190 0.221469 0.032896 -0.669573 0.441872 -0.597010 93 65 46 255 3
-0.401321 0.217373 0.030273 -0.656648 0.403835 -0.636971 97 69 50 255 3
-0.401970 0.213448 0.028471 -0.608401 0.322983 -0.724935 103 74 54 255 3
-0.402343 0.209621 0.027137 -0.555262 0.242640 -0.795494 107 79 58 255 3
-0.402508 0.205866 0.026154 -0.500679 0.142114 -0.853888 110 81 59 255 3
-0.402259 0.202250 0.025874 -0.432004 0.048229 -0.900581 113 84 62 255 3
-0.402009 0.198634 0.025594 -0.355479 -0.047614 -0.933471 114 86 63 255 3
-0.401414 0.195131 0.025900 -0.300864 -0.103400 -0.948045 116 88 64 255 3
-0.400610 0.191693 0.026556 -0.256431 -0.153805 -0.954247 117 89 65 255 3
-0.399945 0.188209 0.026979 -0.223071 -0.197989 -0.954484 120 91 66 255 3
-0.399141 0.184767 0.027636 -0.199685 -0.233996 -0.951510 121 93 67 255 3
-0.398267 0.181344 0.028409 -0.177838 -0.262257 -0.948470 121 93 67 255 3
-0.397393 0.177919 0.029183 -0.153105 -0.292735 -0.943856 119 92 67 255 3
-0.396519 0.174491 0.029957 -0.130485 -0.319059 -0.938709 117 89 65 255 3
-0.395367 0.171144 0.031199 -0.105543 -0.360696 -0.926692 116 88 64 255 3
-0.394215 0.167793 0.032441 -0.055399 -0.428472 -0.901855 112 85 62 255 3
-0.393062 0.164438 0.033683 -0.021895 -0.477416 -0.878405 111 79 57 255 3
-0.391144 0.161304 0.036212 0.020292 -0.513934 -0.857590 114 74 51 255 3
-0.389226 0.158161 0.038742 0.038801 -0.532599 -0.845478 107 75 52 255 3
-0.349083 -0.182956 0.039388 -0.056928 0.578908 -0.813403 97 78 59 255 3
-0.350549 -0.186615 0.036304 -0.091968 0.546481 -0.832406 102 77 55 255 3
-0.351730 -0.190257 0.033687 -0.126249 0.493933 -0.860286 112 82 59 255 3
-0.352269 -0.193872 0.032123 -0.166551 0.420229 -0.892002 116 88 64 255 3
-0.352666 -0.197480 0.030791 -0.201007 0.365740 -0.908752 119 90 66 255 3
-0.353063 -0.201083 0.029460 -0.225635 0.320793 -0.919881 120 91 66 255 3
-0.353317 -0.204680 0.028363 -0.244079 0.295034 -0.923786 120 92 67 255 3
-0.353500 -0.208272 0.027382 -0.258376 0.270903 -0.927283 121 92 67 255 3
-0.353684 -0.211861 0.026402 -0.271126 0.246712 -0.930389 121 92 67 255 3
-0.353868 -0.215447 0.025421 -0.283859 0.220288 -0.933219 119 91 66 255 3
-0.353909 -0.219029 0.024674 -0.301461 0.190817 -0.934189 116 88 64 255 3
-0.353878 -0.222608 0.024044 -0.323512 0.154527 -0.933521 114 86 62 255 3
-0.353848 -0.226185 0.023414 -0.348705 0.105087 -0.931323 112 84 61 255 3
-0.353746 -0.229761 0.022901 -0.381769 0.041187 -0.923340 110 82 59 255 3
-0.353358 -0.233335 0.022855 -0.425386 -0.021800 -0.904750 108 79 57 255 3
-0.352969 -0.236910 0.022809 -0.461358 -0.121906 -0.878799 108 78 57 255 3
-0.352438 -0.240485 0.022997 -0.495519 -0.228926 -0.837886 105 75 55 255 3
-0.351619 -0.244064 0.023652 -0.523852 -0.298285 -0.797875 102 73 53 255 3
-0.350656 -0.247647 0.024541 -0.553916 -0.390618 -0.735251 99 71 51 255 3
-0.349190 -0.251241 0.026247 -0.575415 -0.491574 -0.653646 98 71 51 255 3
-0.347581 -0.254842 0.028186 -0.588442 -0.581374 -0.561908 94 67 48 255 3
-0.345467 -0.258460 0.030943 -0.585413 -0.637145 -0.501335 91 65 47 255 3
-0.341988 -0.262118 0.035919 -0.581947 -0.699187 -0.415302 93 67 49 255 3
-0.400256 0.225736 0.040367 -0.677289 0.545943 -0.493179 81 60 44 255 3
-0.402488 0.221252 0.035866 -0.675948 0.471806 -0.566122 90 62 45 255 3
-0.403686 0.217132 0.033123 -0.643214 0.443129 -0.624429 96 66 48 255 3
-0.404608 0.213114 0.030850 -0.617233 0.356363 -0.701447 102 73 53 255 3
-0.405187 0.209218 0.029163 -0.562874 0.293446 -0.772698 105 76 55 255 3
-0.405420 0.205441 0.028062 -0.522392 0.217949 -0.824382 109 80 58 255 3
-0.405447 0.201735 0.027313 -0.439412 0.099710 -0.892735 112 83 61 255 3
-0.405197 0.198122 0.027032 -0.371076 0.011739 -0.928528 113 84 62 255 3
-0.404879 0.194531 0.026869 -0.305773 -0.076570 -0.949021 115 86 63 255 3
-0.404215 0.191051 0.027292 -0.254747 -0.130427 -0.958172 118 89 65 255 3
-0.403481 0.187592 0.027833 -0.220802 -0.173515 -0.959760 121 91 66 255 3
-0.402747 0.184131 0.028373 -0.192675 -0.214318 -0.957572 121 92 66 255 3
-0.401806 0.180732 0.029265 -0.171719 -0.248288 -0.953344 122 93 67 255 3
-0.401002 0.177288 0.029922 -0.149823 -0.280007 -0.948235 121 93 68 255 3
-0.400129 0.173862 0.030697 -0.133729 -0.304149 -0.943191 118 91 66 255 3
-0.399048 0.170497 0.031823 -0.102336 -0.345970 -0.932648 117 90 66 255 3
-0.397828 0.167170 0.033184 -0.075578 -0.395990 -0.915139 114 87 63 255 3
-0.396746 0.163797 0.034310 -0.022319 -0.458346 -0.888494 112 81 58 255 3
-0.395248 0.160543 0.036139 0.026050 -0.504989 -0.862733 115 76 54 255 3
-0.393195 0.157444 0.038906 0.028162 -0.517078 -0.855475 111 75 53 255 3
-0.390099 0.154637 0.043431 0.054769 -0.546761 -0.835495 87 74 56 255 3
-0.349995 -0.179593 0.045341 -0.041515 0.584117 -0.810607 83 71 54 255 3
-0.353453 -0.183331 0.038978 -0.074595 0.554232 -0.829013 101 77 57 255 3
-0.354630 -0.186976 0.036358 -0.101753 0.513068 -0.852295 105 79 58 255 3
-0.355595 -0.190607 0.034090 -0.154720 0.428951 -0.889979 113 85 62 255 3
-0.355990 -0.194215 0.032757 -0.173848 0.392719 -0.903077 116 89 65 255 3
-0.356314 -0.197818 0.031541 -0.211712 0.334289 -0.918384 118 90 66 255 3
-0.356639 -0.201417 0.030326 -0.227576 0.306931 -0.924123 121 92 67 255 3
-0.356821 -0.205009 0.029344 -0.247074 0.279562 -0.927793 121 92 67 255 3
-0.357003 -0.208599 0.028363 -0.262276 0.256758 -0.930208 121 93 67 255 3
-0.357186 -0.212185 0.027381 -0.276293 0.233734 -0.932218 121 92 66 255 3
-0.357369 -0.215769 0.026400 -0.288476 0.204331 -0.935431 119 90 65 255 3
-0.357338 -0.219347 0.025769 -0.304360 0.173668 -0.936592 116 88 63 255 3
-0.357307 -0.222924 0.025138 -0.330812 0.128199 -0.934948 113 85 61 255 3
-0.357276 -0.226499 0.024508 -0.359682 0.067953 -0.930597 111 83 60 255 3
-0.357031 -0.230072 0.024228 -0.395011 -0.003814 -0.918668 110 82 59 255 3
-0.356571 -0.233645 0.024299 -0.435706 -0.084260 -0.896136 107 79 57 255 3
-0.356183 -0.237218 0.024253 -0.473025 -0.185574 -0.861284 106 77 56 255 3
-0.355365 -0.240794 0.024909 -0.512147 -0.283835 -0.810644 104 74 54 255 3
-0.354547 -0.244372 0.025565 -0.536625 -0.346555 -0.769372 101 72 52 255 3
-0.353156 -0.247960 0.027156 -0.573376 -0.484002 -0.661046 99 70 51 255 3
-0.351692 -0.251554 0.028864 -0.578723 -0.575247 -0.578075 97 69 49 255 3
-0.349726 -0.255162 0.031390 -0.583394 -0.633717 -0.507990 92 67 48 255 3
-0.346684 -0.258801 0.035671 -0.581302 -0.694775 -0.423528 89 65 47 255 3
-0.226378 -0.265146 0.231116 -0.172668 -0.971033 -0.165165 78 66 49 255 3
-0.288654 0.264807 0.237603 -0.383156 0.920737 -0.073722 75 65 50 255 3
-0.404856 0.221011 0.038719 -0.669651 0.491262 -0.556982 84 58 42 255 3
-0.405913 0.216938 0.036209 -0.652844 0.475031 -0.590034 94 64 46 255 3
-0.407177 0.212803 0.033346 -0.610506 0.435458 -0.661558 100 70 50 255 3
-0.407823 0.208884 0.031539 -0.571654 0.364497 -0.735088 104 74 54 255 3
-0.408262 0.205039 0.030085 -0.510364 0.292070 -0.808841 107 78 58 255 3
-0.408633 0.201221 0.028748 -0.455086 0.176275 -0.872825 111 82 61 255 3
-0.408521 0.197564 0.028233 -0.387131 0.074449 -0.919014 114 85 63 255 3
-0.408340 0.193931 0.027835 -0.318946 -0.027149 -0.947384 116 87 63 255 3
-0.407746 0.190432 0.028142 -0.262360 -0.092700 -0.960507 119 89 65 255 3
-0.407013 0.186975 0.028683 -0.223298 -0.147899 -0.963464 121 91 66 255 3
-0.406350 0.183494 0.029106 -0.194984 -0.196576 -0.960905 121 92 66 255 3
-0.405479 0.180077 0.029882 -0.169005 -0.232941 -0.957693 121 93 67 255 3
-0.404538 0.176678 0.030775 -0.153700 -0.267318 -0.951271 121 94 69 255 3
-0.403666 0.173255 0.031551 -0.133218 -0.296211 -0.945787 120 92 68 255 3
-0.402725 0.169851 0.032443 -0.105898 -0.326185 -0.939356 118 90 66 255 3
-0.401576 0.166506 0.033688 -0.079448 -0.372395 -0.924667 117 88 65 255 3
-0.400358 0.163177 0.035051 -0.046502 -0.420701 -0.906007 116 84 61 255 3
-0.399208 0.159823 0.036295 0.009247 -0.477736 -0.878455 113 79 56 255 3
-0.397227 0.156708 0.038948 0.039851 -0.521985 -0.852023 109 75 53 255 3
-0.395245 0.153584 0.041601 0.062883 -0.537852 -0.840691 101 77 58 255 3
-0.356427 -0.180049 0.041535 -0.057872 0.554126 -0.830419 103 76 57 255 3
-0.357602 -0.183698 0.038912 -0.076279 0.536207 -0.840633 104 78 57 255 3
-0.358777 -0.187338 0.036290 -0.109719 0.484147 -0.868080 109 83 61 255 3
-0.359313 -0.190952 0.034722 -0.151200 0.404573 -0.901920 113 86 63 255 3
-0.359635 -0.194556 0.033505 -0.186970 0.355867 -0.915642 116 89 65 255 3
-0.360030 -0.198157 0.032171 -0.209577 0.311625 -0.926805 119 92 67 255 3
-0.360211 -0.201750 0.031188 -0.229802 0.285850 -0.930312 121 92 67 255 3
-0.360392 -0.205339 0.030205 -0.248909 0.262486 -0.932280 121 92 67 255 3
-0.360573 -0.208926 0.029223 -0.264377 0.240459 -0.933962 121 92 67 255 3
-0.360755 -0.212510 0.028240 -0.277098 0.217030 -0.936010 119 90 66 255 3
-0.360795 -0.216089 0.027492 -0.294054 0.191166 -0.936476 117 88 63 255 3
-0.360835 -0.219666 0.026743 -0.318933 0.151551 -0.935582 115 87 63 255 3
-0.360732 -0.223240 0.026229 -0.343467 0.095043 -0.934343 113 85 61 255 3
-0.360629 -0.226813 0.025715 -0.374927 0.025526 -0.926703 111 83 60 255 3
-0.360241 -0.230384 0.025669 -0.412332 -0.050087 -0.909656 110 81 59 255 3
-0.359853 -0.233954 0.025623 -0.459684 -0.150341 -0.875265 107 78 57 255 3
-0.359180 -0.237527 0.026046 -0.490999 -0.241736 -0.836949 106 76 55 255 3
-0.358291 -0.241102 0.026820 -0.524964 -0.333779 -0.782946 103 74 54 255 3
-0.357188 -0.244682 0.027944 -0.558517 -0.435346 -0.706068 101 71 51 255 3
-0.355727 -0.248271 0.029654 -0.568911 -0.521057 -0.636271 99 70 50 255 3
-0.353908 -0.251871 0.031950 -0.590808 -0.606935 -0.531578 94 67 48 255 3
-0.351373 -0.255491 0.035415 -0.588057 -0.659130 -0.468760 90 65 47 255 3
-0.346832 -0.259163 0.042158 -0.580362 -0.709693 -0.399395 83 66 49 255 3
-0.405370 0.221405 0.044746 -0.657203 0.559537 -0.504978 80 59 44 255 3
-0.408210 0.216719 0.039178 -0.649748 0.510116 -0.563568 90 61 43 255 3
-0.409403 0.212607 0.036429 -0.620172 0.497924 -0.606183 96 68 48 255 3
-0.410527 0.208527 0.033798 -0.569734 0.398864 -0.718548 103 72 53 255 3
-0.411378 0.204546 0.031638 -0.512174 0.333586 -0.791453 106 77 57 255 3
-0.411747 0.200730 0.030300 -0.470868 0.252179 -0.845393 109 81 60 255 3
-0.411842 0.197007 0.029431 -0.406127 0.138067 -0.903326 114 84 63 255 3
-0.411592 0.193399 0.029151 -0.330401 0.020088 -0.943627 115 86 63 255 3
-0.411205 0.189835 0.029105 -0.274404 -0.077066 -0.958521 118 88 65 255 3
-0.410542 0.186358 0.029529 -0.232175 -0.119637 -0.965288 119 89 65 255 3
-0.409879 0.182880 0.029953 -0.198300 -0.181889 -0.963116 119 90 65 255 3
-0.409078 0.179444 0.030612 -0.172361 -0.217130 -0.960805 121 93 68 255 3
-0.408139 0.176048 0.031506 -0.150912 -0.251943 -0.955903 121 93 68 255 3
-0.407269 0.172628 0.032283 -0.127911 -0.280727 -0.951226 121 93 68 255 3
-0.406398 0.169205 0.033060 -0.105060 -0.310530 -0.944740 120 91 67 255 3
-0.405251 0.165863 0.034306 -0.079583 -0.340648 -0.936817 118 88 64 255 3
-0.404034 0.162537 0.035670 -0.046422 -0.399506 -0.915554 117 85 61 255 3
-0.402886 0.159186 0.036916 0.010224 -0.459294 -0.888225 114 82 58 255 3
-0.401254 0.155972 0.038984 0.031353 -0.495223 -0.868200 107 77 55 255 3
-0.399207 0.152871 0.041757 0.047548 -0.517038 -0.854641 104 77 57 255 3
-0.357557 -0.176694 0.047140 -0.038244 0.583264 -0.811382 93 75 57 255 3
-0.360644 -0.180422 0.041349 -0.060334 0.542670 -0.837776 105 74 54 255 3
-0.361745 -0.184064 0.038841 -0.087259 0.502169 -0.860356 107 80 59 255 3
-0.362705 -0.187693 0.036567 -0.122216 0.444458 -0.887424 111 86 62 255 3
-0.363026 -0.191297 0.035349 -0.154496 0.382615 -0.910899 114 88 64 255 3
-0.363348 -0.194897 0.034131 -0.192864 0.324532 -0.926003 116 90 66 255 3
-0.363670 -0.198494 0.032913 -0.208221 0.295274 -0.932447 119 91 67 255 3
-0.363779 -0.202082 0.032046 -0.228332 0.267285 -0.936175 121 92 67 255 3
-0.363959 -0.205669 0.031063 -0.245760 0.245465 -0.937736 122 93 68 255 3
-0.364069 -0.209252 0.030196 -0.262924 0.228721 -0.937314 120 92 67 255 3
-0.364179 -0.212832 0.029330 -0.281779 0.201378 -0.938108 119 90 66 255 3
-0.364218 -0.216409 0.028581 -0.304128 0.168082 -0.937686 116 87 63 255 3
-0.364257 -0.219984 0.027832 -0.330509 0.122144 -0.935866 114 86 62 255 3
-0.364154 -0.223556 0.027317 -0.360817 0.058247 -0.930816 112 84 61 255 3
-0.363837 -0.227125 0.027154 -0.394499 -0.012494 -0.918811 111 83 60 255 3
-0.363450 -0.230694 0.027108 -0.437950 -0.112004 -0.891995 108 79 57 255 3
-0.362919 -0.234264 0.027297 -0.472471 -0.219548 -0.853563 106 77 56 255 3
-0.362104 -0.237836 0.027954 -0.506425 -0.292070 -0.811313 105 75 55 255 3
-0.361145 -0.241411 0.028846 -0.541183 -0.388604 -0.745726 102 73 53 255 3
-0.359687 -0.244994 0.030558 -0.568869 -0.492944 -0.658327 100 72 51 255 3
-0.358014 -0.248586 0.032622 -0.585146 -0.584591 -0.562012 98 70 50 255 3
-0.355983 -0.252190 0.035271 -0.583899 -0.640964 -0.498225 92 65 47 255 3
-0.352452 -0.255830 0.040381 -0.583892 -0.684271 -0.436857 88 66 47 255 3
-0.410646 0.216454 0.041913 -0.629651 0.530939 -0.567136 83 59 42 255 3
-0.411767 0.212366 0.039279 -0.621697 0.529733 -0.576953 93 64 46 255 3
-0.413437 0.208101 0.035704 -0.576949 0.484407 -0.657632 98 69 50 255 3
-0.414285 0.204121 0.033541 -0.518116 0.399384 -0.756338 103 75 55 255 3
-0.414859 0.200239 0.031848 -0.477165 0.293392 -0.828393 107 79 58 255 3
-0.415159 0.196451 0.030627 -0.413066 0.184032 -0.891913 112 83 62 255 3
-0.414910 0.192844 0.030346 -0.353094 0.072012 -0.932812 114 85 63 255 3
-0.414729 0.189216 0.029947 -0.293266 -0.037048 -0.955313 117 88 65 255 3
-0.414067 0.185742 0.030372 -0.242578 -0.104319 -0.964507 118 89 65 255 3
-0.413405 0.182267 0.030797 -0.205872 -0.159997 -0.965411 119 90 66 255 3
-0.412674 0.178812 0.031339 -0.173256 -0.195284 -0.965322 121 92 67 255 3
-0.411736 0.175418 0.032234 -0.145537 -0.233533 -0.961396 121 92 67 255 3
-0.410867 0.172001 0.033012 -0.120248 -0.260142 -0.958054 122 92 67 255 3
-0.409928 0.168602 0.033907 -0.089228 -0.291571 -0.952378 120 90 66 255 3
-0.408921 0.165220 0.034919 -0.065876 -0.321626 -0.944572 119 89 64 255 3
-0.407775 0.161876 0.036167 -0.043140 -0.369698 -0.928150 118 86 62 255 3
-0.406629 0.158528 0.037415 0.001340 -0.433830 -0.900994 116 84 59 255 3
-0.405344 0.155217 0.038898 0.042874 -0.489049 -0.871202 112 80 57 255 3
-0.403301 0.152120 0.041674 0.048879 -0.517659 -0.854190 106 77 56 255 3
-0.400773 0.149153 0.045273 0.078293 -0.546638 -0.833701 94 77 57 255 3
-0.363616 -0.177143 0.043903 -0.048850 0.553049 -0.831716 105 75 56 255 3
-0.364784 -0.180792 0.041274 -0.066124 0.524354 -0.848929 106 74 54 255 3
-0.365954 -0.184431 0.038646 -0.099429 0.471912 -0.876021 108 82 60 255 3
-0.366415 -0.188041 0.037192 -0.136646 0.398665 -0.906860 112 87 63 255 3
-0.366735 -0.191642 0.035973 -0.168057 0.348256 -0.922212 116 90 66 255 3
-0.367127 -0.195241 0.034636 -0.185375 0.302636 -0.934905 116 90 66 255 3
-0.367306 -0.198830 0.033651 -0.207084 0.273912 -0.939196 120 93 68 255 3
-0.367414 -0.202416 0.032784 -0.223685 0.248973 -0.942326 121 93 67 255 3
-0.367523 -0.205999 0.031916 -0.241225 0.227608 -0.943401 121 92 67 255 3
-0.367632 -0.209579 0.031049 -0.260524 0.207013 -0.943013 120 92 67 255 3
-0.367670 -0.213155 0.030299 -0.281840 0.179266 -0.942566 118 90 66 255 3
-0.367637 -0.216729 0.029667 -0.307593 0.131456 -0.942394 116 88 64 255 3
-0.367676 -0.220301 0.028917 -0.340988 0.084754 -0.936239 114 86 62 255 3
-0.367431 -0.223870 0.028636 -0.379681 0.012895 -0.925028 112 83 60 255 3
-0.367114 -0.227438 0.028473 -0.420610 -0.071826 -0.904394 110 81 59 255 3
-0.366727 -0.231005 0.028427 -0.456340 -0.175992 -0.872228 108 78 57 255 3
-0.365912 -0.234574 0.029086 -0.496069 -0.277849 -0.822627 106 77 56 255 3
-0.365026 -0.238145 0.029861 -0.522700 -0.343970 -0.780045 103 74 54 255 3
-0.363642 -0.241723 0.031458 -0.562111 -0.465499 -0.683624 101 72 52 255 3
-0.362185 -0.245306 0.033172 -0.573768 -0.553832 -0.603374 98 71 51 255 3
-0.360230 -0.248902 0.035707 -0.580315 -0.641695 -0.501460 94 67 49 255 3
-0.357204 -0.252524 0.040002 -0.594928 -0.677191 -0.432982 91 65 48 255 3
-0.241347 -0.258252 0.230010 -0.162839 -0.986652 0.001285 76 64 47 255 3
-0.410549 0.217052 0.049005 -0.626189 0.564575 -0.537720 75 61 46 255 3
-0.414405 0.212031 0.041658 -0.604265 0.549807 -0.576693 87 61 44 255 3
-0.416072 0.207767 0.038079 -0.569012 0.514837 -0.641223 96 68 48 255 3
-0.417192 0.203697 0.035443 -0.519225 0.427050 -0.740293 100 73 53 255 3
-0.417901 0.199770 0.033513 -0.489432 0.346110 -0.800415 107 80 59 255 3
-0.418337 0.195939 0.032054 -0.429766 0.243345 -0.869531 111 83 61 255 3
-0.418293 0.192268 0.031420 -0.379251 0.123648 -0.916995 114 85 63 255 3
-0.418043 0.188664 0.031139 -0.310752 0.002289 -0.950488 117 88 65 255 3
-0.417519 0.185149 0.031329 -0.255640 -0.088058 -0.962753 118 89 65 255 3
-0.416858 0.181676 0.031754 -0.214312 -0.124891 -0.968748 118 90 66 255 3
-0.416197 0.178201 0.032179 -0.176454 -0.173174 -0.968955 119 90 66 255 3
-0.415329 0.174789 0.032958 -0.143942 -0.207240 -0.967643 120 90 66 255 3
-0.414461 0.171374 0.033736 -0.110735 -0.235666 -0.965505 121 91 66 255 3
-0.413593 0.167957 0.034515 -0.078176 -0.265636 -0.960899 120 88 64 255 3
-0.412793 0.164516 0.035175 -0.049464 -0.300415 -0.952525 119 88 63 255 3
-0.411649 0.161176 0.036424 -0.026509 -0.343675 -0.938715 119 86 61 255 3
-0.410573 0.157811 0.037556 0.006306 -0.417365 -0.908717 117 85 60 255 3
-0.409291 0.154503 0.039041 0.054192 -0.467397 -0.882385 113 81 58 255 3
-0.407389 0.151369 0.041585 0.081661 -0.528348 -0.845091 108 80 57 255 3
-0.405348 0.148267 0.044364 0.081450 -0.533958 -0.841579 105 80 57 255 3
-0.365244 -0.173809 0.048689 -0.020407 0.585559 -0.810373 93 73 55 255 3
-0.367752 -0.177517 0.043825 -0.051237 0.549770 -0.833743 106 75 55 255 3
-0.368989 -0.181163 0.041077 -0.079452 0.489170 -0.868562 109 79 56 255 3
-0.369802 -0.184787 0.039033 -0.115556 0.438547 -0.891248 111 84 61 255 3
-0.370192 -0.188390 0.037695 -0.140393 0.379323 -0.914551 115 88 64 255 3
-0.370511 -0.191988 0.036474 -0.175800 0.320201 -0.930895 118 91 67 255 3
-0.370830 -0.195581 0.035254 -0.181567 0.287566 -0.940393 118 91 67 255 3
-0.370938 -0.199166 0.034385 -0.203988 0.256500 -0.944774 121 93 68 255 3
-0.371046 -0.202749 0.033517 -0.216911 0.235083 -0.947463 122 92 67 255 3
-0.371154 -0.206329 0.032649 -0.234825 0.211640 -0.948718 121 92 66 255 3
-0.371120 -0.209904 0.032016 -0.253662 0.182602 -0.949901 119 91 66 255 3
-0.371087 -0.213477 0.031383 -0.280095 0.143361 -0.949207 118 89 65 255 3
-0.371125 -0.217049 0.030632 -0.310674 0.102409 -0.944984 116 88 64 255 3
-0.371021 -0.220618 0.030116 -0.349928 0.038865 -0.935970 114 85 62 255 3
-0.370705 -0.224184 0.029953 -0.402552 -0.034203 -0.914758 112 83 60 255 3
-0.370317 -0.227750 0.029907 -0.445622 -0.139090 -0.884350 110 81 59 255 3
-0.369646 -0.231315 0.030331 -0.479532 -0.232918 -0.846048 108 77 56 255 3
-0.368832 -0.234883 0.030990 -0.513984 -0.330274 -0.791669 104 75 54 255 3
-0.367592 -0.238456 0.032354 -0.549943 -0.438067 -0.711098 103 74 54 255 3
-0.366281 -0.242033 0.033835 -0.561946 -0.527744 -0.636947 100 72 52 255 3
-0.364400 -0.245622 0.036256 -0.588296 -0.617108 -0.522575 96 70 51 255 3
-0.361807 -0.249228 0.039851 -0.586556 -0.668461 -0.457288 92 67 50 255 3
-0.357079 -0.252880 0.046970 -0.587194 -0.692280 -0.419467 84 66 49 255 3
-0.417044 0.211697 0.044037 -0.576304 0.565187 -0.590286 80 60 43 255 3
-0.418706 0.207434 0.040455 -0.563667 0.546199 -0.619635 93 65 46 255 3
-0.420097 0.203273 0.037344 -0.532197 0.483069 -0.695278 97 71 51 255 3
-0.420941 0.199302 0.035176 -0.490937 0.381655 -0.783148 106 78 58 255 3
-0.421443 0.195450 0.033598 -0.438902 0.276492 -0.854937 112 83 61 255 3
-0.421604 0.191714 0.032609 -0.389601 0.162988 -0.906447 115 86 64 255 3
-0.421355 0.188112 0.032328 -0.328501 0.052628 -0.943036 117 88 65 255 3
-0.421037 0.184533 0.032164 -0.268484 -0.044547 -0.962254 118 89 66 255 3
-0.420376 0.181063 0.032590 -0.228617 -0.092958 -0.969068 119 90 66 255 3
-0.419716 0.177591 0.033016 -0.179864 -0.143564 -0.973159 119 90 65 255 3
-0.419055 0.174118 0.033442 -0.144803 -0.176403 -0.973609 120 91 66 255 3
-0.418257 0.170685 0.034103 -0.109269 -0.207628 -0.972086 118 88 63 255 3
-0.417458 0.167250 0.034765 -0.074432 -0.239900 -0.967940 119 88 63 255 3
-0.416660 0.163813 0.035426 -0.040881 -0.280847 -0.958882 119 88 63 255 3
-0.415586 0.160455 0.036559 -0.018066 -0.313713 -0.949346 118 86 62 255 3
-0.414513 0.157094 0.037692 0.011920 -0.384449 -0.923069 117 85 61 255 3
-0.413164 0.153809 0.039296 0.054963 -0.457083 -0.887724 114 83 59 255 3
-0.411540 0.150599 0.041372 0.086773 -0.513553 -0.853659 109 80 58 255 3
-0.409434 0.147521 0.044272 0.088627 -0.536814 -0.839033 108 79 56 255 3
-0.406502 0.144668 0.048586 0.116339 -0.575764 -0.809297 92 73 54 255 3
-0.370791 -0.174245 0.046259 -0.030269 0.564941 -0.824576 106 73 54 255 3
-0.371953 -0.177893 0.043625 -0.044444 0.536043 -0.843020 109 75 54 255 3
-0.373117 -0.181532 0.040991 -0.083329 0.461231 -0.883359 111 82 58 255 3
-0.373575 -0.185139 0.039533 -0.117358 0.395809 -0.910803 114 88 63 255 3
-0.373964 -0.188739 0.038194 -0.150900 0.345614 -0.926164 119 92 67 255 3
-0.374352 -0.192335 0.036854 -0.166381 0.300598 -0.939126 122 93 69 255 3
-0.374459 -0.195920 0.035985 -0.189630 0.270194 -0.943947 123 94 69 255 3
-0.374566 -0.199502 0.035116 -0.202826 0.240990 -0.949097 124 95 69 255 3
-0.374673 -0.203081 0.034247 -0.215069 0.218997 -0.951728 122 93 68 255 3
-0.374780 -0.206658 0.033378 -0.230711 0.188771 -0.954536 122 92 67 255 3
-0.374747 -0.210231 0.032744 -0.252103 0.152620 -0.955589 119 92 67 255 3
-0.374642 -0.213800 0.032228 -0.279714 0.108034 -0.953986 117 89 66 255 3
-0.374538 -0.217368 0.031711 -0.315493 0.059419 -0.947066 115 87 64 255 3
-0.374222 -0.220933 0.031548 -0.361532 -0.018647 -0.932173 113 85 63 255 3
-0.373976 -0.224498 0.031267 -0.409183 -0.104951 -0.906396 111 82 60 255 3
-0.373447 -0.228061 0.031457 -0.453137 -0.213608 -0.865470 109 80 58 255 3
-0.372635 -0.231626 0.032116 -0.493542 -0.284855 -0.821751 107 77 55 255 3
-0.371609 -0.235193 0.033129 -0.533214 -0.387115 -0.752214 104 74 53 255 3
-0.370229 -0.238766 0.034730 -0.544290 -0.476785 -0.690235 102 72 52 255 3
-0.368565 -0.242346 0.036800 -0.580534 -0.596075 -0.554685 97 70 50 255 3
-0.366474 -0.245938 0.039577 -0.580125 -0.652243 -0.487888 93 69 50 255 3
-0.362608 -0.249564 0.045292 -0.572284 -0.688509 -0.445473 88 68 49 255 3
-0.417294 0.212171 0.050547 -0.580855 0.590663 -0.560111 80 65 49 255 3
-0.421204 0.207146 0.043065 -0.552419 0.561970 -0.615649 92 65 47 255 3
-0.422864 0.202894 0.039479 -0.532209 0.508819 -0.676651 96 70 50 255 3
-0.423774 0.198902 0.037191 -0.497171 0.409972 -0.764685 103 74 55 255 3
-0.424480 0.194984 0.035257 -0.467597 0.332718 -0.818933 111 81 60 255 3
-0.424913 0.191160 0.033795 -0.404398 0.220971 -0.887487 116 87 65 255 3
-0.424663 0.187561 0.033514 -0.344821 0.107918 -0.932444 118 89 66 255 3
-0.424482 0.183940 0.033114 -0.278711 -0.004194 -0.960366 119 90 66 255 3
-0.423891 0.180451 0.033423 -0.239490 -0.054085 -0.969391 120 90 66 255 3
-0.423231 0.176981 0.033849 -0.187694 -0.108764 -0.976187 120 90 65 255 3
-0.422708 0.173468 0.034039 -0.147660 -0.143992 -0.978500 120 90 65 255 3
-0.422048 0.169996 0.034466 -0.108973 -0.176911 -0.978176 120 89 64 255 3
-0.421251 0.166564 0.035128 -0.067537 -0.207450 -0.975911 121 90 65 255 3
-0.420453 0.163130 0.035790 -0.023900 -0.245084 -0.969207 118 87 63 255 3
-0.419519 0.159735 0.036688 0.015271 -0.280011 -0.959875 117 86 62 255 3
-0.418378 0.156398 0.037941 0.034256 -0.351857 -0.935427 117 85 61 255 3
-0.417031 0.153117 0.039547 0.067215 -0.423747 -0.903283 116 84 60 255 3
-0.415616 0.149850 0.041271 0.109517 -0.502653 -0.857523 112 82 60 255 3
-0.413582 0.146756 0.044056 0.122923 -0.543287 -0.830499 108 80 58 255 3
-0.411547 0.143652 0.046842 0.124134 -0.565278 -0.815507 97 72 52 255 3
-0.372914 -0.170934 0.050222 -0.006774 0.581621 -0.813432 95 71 53 255 3
-0.374918 -0.174622 0.046172 -0.029036 0.554279 -0.831824 109 75 54 255 3
-0.376148 -0.178268 0.043418 -0.045618 0.507260 -0.860585 113 79 56 255 3
-0.376957 -0.181889 0.041370 -0.070389 0.442183 -0.894159 114 84 60 255 3
-0.377344 -0.185490 0.040029 -0.110172 0.374780 -0.920545 116 89 64 255 3
-0.377731 -0.189087 0.038688 -0.150780 0.313884 -0.937412 121 92 67 255 3
-0.377978 -0.192676 0.037582 -0.161950 0.283883 -0.945083 124 94 69 255 3
-0.378084 -0.196258 0.036712 -0.187527 0.254735 -0.948654 124 94 69 255 3
-0.378190 -0.199837 0.035842 -0.201655 0.230567 -0.951932 123 94 69 255 3
-0.378367 -0.203415 0.034855 -0.215163 0.201972 -0.955464 122 93 67 255 3
-0.378332 -0.206986 0.034220 -0.229607 0.168673 -0.958556 121 92 67 255 3
-0.378298 -0.210556 0.033586 -0.251814 0.123932 -0.959808 119 91 67 255 3
-0.378194 -0.214123 0.033069 -0.282012 0.079099 -0.956145 115 88 65 255 3
-0.377948 -0.217686 0.032788 -0.322150 0.007005 -0.946663 113 86 64 255 3
-0.377561 -0.221249 0.032742 -0.379993 -0.073069 -0.922099 111 83 62 255 3
-0.377174 -0.224811 0.032696 -0.426942 -0.183380 -0.885490 110 82 61 255 3
-0.376363 -0.228372 0.033357 -0.468958 -0.278840 -0.838049 107 79 58 255 3
-0.375551 -0.231936 0.034018 -0.504502 -0.342925 -0.792389 105 76 55 255 3
-0.374173 -0.235504 0.035620 -0.551285 -0.468243 -0.690531 102 72 52 255 3
-0.372724 -0.239077 0.037340 -0.565059 -0.540567 -0.623294 100 71 50 255 3
-0.370850 -0.242660 0.039766 -0.571000 -0.624225 -0.533199 94 68 49 255 3
-0.367700 -0.246265 0.044311 -0.581988 -0.674057 -0.454903 91 70 50 255 3
-0.256244 -0.251410 0.228840 -0.235189 -0.959304 0.156276 69 65 48 255 3
-0.423770 0.206835 0.045558 -0.543344 0.577650 -0.609178 89 64 47 255 3
-0.425630 0.202516 0.041614 -0.533187 0.540157 -0.651108 94 67 47 255 3
-0.426674 0.198479 0.039087 -0.511417 0.450827 -0.731579 102 74 53 255 3
-0.427514 0.194518 0.036915 -0.479680 0.381676 -0.790083 109 80 58 255 3
-0.428014 0.190673 0.035333 -0.414152 0.273304 -0.868207 114 84 63 255 3
-0.428037 0.186988 0.034579 -0.361278 0.164097 -0.917905 117 88 65 255 3
-0.427856 0.183370 0.034179 -0.291250 0.045000 -0.955588 118 90 66 255 3
-0.427402 0.179839 0.034251 -0.234328 -0.043759 -0.971172 120 91 67 255 3
-0.426811 0.176351 0.034560 -0.193642 -0.075224 -0.978184 120 89 65 255 3
-0.426288 0.172840 0.034751 -0.148919 -0.107931 -0.982942 122 90 66 255 3
-0.425697 0.169350 0.035060 -0.104289 -0.135799 -0.985232 122 90 65 255 3
-0.424970 0.165900 0.035605 -0.053885 -0.161720 -0.985364 122 90 65 255 3
-0.424242 0.162449 0.036150 -0.001059 -0.199410 -0.979915 120 88 63 255 3
-0.423445 0.159016 0.036813 0.043925 -0.248787 -0.967562 119 87 63 255 3
-0.422238 0.155702 0.038184 0.069352 -0.320078 -0.944849 117 86 62 255 3
-0.420894 0.152424 0.039792 0.094336 -0.406392 -0.908816 116 84 60 255 3
-0.419549 0.149141 0.041400 0.130610 -0.489165 -0.862356 113 81 59 255 3
-0.417656 0.146011 0.043953 0.143777 -0.539910 -0.829352 107 80 58 255 3
-0.415625 0.142911 0.046742 0.155776 -0.569414 -0.807156 100 74 54 255 3
-0.412360 0.140151 0.051656 0.171722 -0.601119 -0.780492 87 71 52 255 3
-0.374619 -0.167598 0.054897 0.015568 0.595278 -0.803369 80 69 54 255 3
-0.378022 -0.171358 0.048485 -0.001360 0.567720 -0.823220 103 72 52 255 3
-0.379179 -0.175004 0.045845 -0.014954 0.543232 -0.839449 111 76 54 255 3
-0.380337 -0.178642 0.043205 -0.054989 0.455787 -0.888389 114 81 57 255 3
-0.380722 -0.182243 0.041863 -0.084611 0.391533 -0.916266 115 86 61 255 3
-0.381108 -0.185841 0.040520 -0.119614 0.334228 -0.934871 118 89 64 255 3
-0.381494 -0.189435 0.039178 -0.140064 0.290190 -0.946664 120 91 66 255 3
-0.381599 -0.193016 0.038307 -0.164061 0.264329 -0.950376 123 92 68 255 3
-0.381774 -0.196597 0.037318 -0.180220 0.236560 -0.954757 123 92 68 255 3
-0.381880 -0.200173 0.036447 -0.199444 0.214939 -0.956046 122 92 68 255 3
-0.381986 -0.203747 0.035576 -0.216503 0.178752 -0.959778 121 91 67 255 3
-0.381881 -0.207314 0.035059 -0.234233 0.144283 -0.961414 119 90 66 255 3
-0.381846 -0.210881 0.034424 -0.256733 0.090078 -0.962276 117 89 65 255 3
-0.381741 -0.214445 0.033907 -0.290744 0.034159 -0.956191 115 87 64 255 3
-0.381355 -0.218004 0.033861 -0.340008 -0.041344 -0.939513 112 84 62 255 3
-0.380897 -0.221564 0.033933 -0.384640 -0.149097 -0.910946 110 83 61 255 3
-0.380228 -0.225123 0.034359 -0.429244 -0.242458 -0.870036 108 81 60 255 3
-0.379277 -0.228683 0.035256 -0.476594 -0.338871 -0.811187 104 77 56 255 3
-0.378113 -0.232246 0.036507 -0.523936 -0.446996 -0.725042 103 74 54 255 3
-0.376879 -0.235814 0.037875 -0.534983 -0.536354 -0.652776 101 71 51 255 3
-0.375008 -0.239390 0.040305 -0.563685 -0.622736 -0.542640 96 68 48 255 3
-0.372288 -0.242981 0.044148 -0.567663 -0.666055 -0.483870 95 69 49 255 3
-0.367164 -0.246613 0.051997 -0.568255 -0.706348 -0.422089 79 67 50 255 3
-0.424501 0.207142 0.051245 -0.547875 0.598200 -0.584799 81 64 48 255 3
-0.428192 0.202206 0.044102 -0.525504 0.545488 -0.652908 91 65 46 255 3
-0.429505 0.198080 0.041100 -0.509943 0.487446 -0.708770 99 71 51 255 3
-0.430411 0.194097 0.038807 -0.482368 0.426375 -0.765196 105 78 57 255 3
-0.431045 0.190209 0.036987 -0.436253 0.317424 -0.841977 112 83 62 255 3
-0.431408 0.186415 0.035641 -0.364715 0.207090 -0.907798 117 87 64 255 3
-0.431294 0.182778 0.035122 -0.301758 0.097115 -0.948425 118 89 65 255 3
-0.430977 0.179206 0.034958 -0.239626 0.000006 -0.970865 121 92 68 255 3
-0.430387 0.175721 0.035267 -0.200179 -0.037989 -0.979023 121 91 66 255 3
-0.429865 0.172213 0.035458 -0.149678 -0.068581 -0.986353 120 90 66 255 3
-0.429343 0.168704 0.035649 -0.097846 -0.084505 -0.991607 119 89 64 255 3
-0.428616 0.165258 0.036195 -0.044881 -0.108549 -0.993077 120 90 65 255 3
-0.427957 0.161788 0.036623 0.012740 -0.149265 -0.988715 122 89 64 255 3
-0.427230 0.158338 0.037168 0.068054 -0.219644 -0.973204 121 89 64 255 3
-0.426366 0.154926 0.037950 0.098292 -0.299633 -0.948978 118 87 63 255 3
-0.425229 0.151592 0.039205 0.126939 -0.379823 -0.916308 115 85 60 255 3
-0.423887 0.148314 0.040815 0.144019 -0.460936 -0.875669 115 83 59 255 3
-0.421860 0.145227 0.043607 0.169088 -0.528612 -0.831853 112 81 57 255 3
-0.419833 0.142132 0.046399 0.192084 -0.582388 -0.789891 108 77 54 255 3
-0.417805 0.139027 0.049191 0.198220 -0.598782 -0.775996 102 73 52 255 3
-0.380496 -0.168064 0.051858 0.020090 0.580928 -0.813707 96 72 54 255 3
-0.382280 -0.171743 0.048153 0.013658 0.560033 -0.828357 105 71 50 255 3
-0.383434 -0.175385 0.045511 -0.001277 0.518603 -0.855014 111 78 55 255 3
-0.384379 -0.179010 0.043223 -0.037831 0.436104 -0.899101 114 83 59 255 3
-0.384763 -0.182607 0.041879 -0.080717 0.366418 -0.926943 116 86 62 255 3
-0.385008 -0.186196 0.040771 -0.111174 0.301856 -0.946849 118 89 64 255 3
-0.385182 -0.189780 0.039781 -0.125052 0.274660 -0.953375 120 91 66 255 3
-0.385286 -0.193358 0.038909 -0.148921 0.243135 -0.958493 122 92 67 255 3
-0.385391 -0.196934 0.038037 -0.173542 0.217117 -0.960595 121 92 68 255 3
-0.385566 -0.200509 0.037048 -0.192646 0.193340 -0.962033 119 90 66 255 3
-0.385531 -0.204076 0.036412 -0.214497 0.157497 -0.963943 120 91 67 255 3
-0.385425 -0.207641 0.035894 -0.240571 0.117506 -0.963493 117 90 65 255 3
-0.385390 -0.211205 0.035258 -0.267980 0.065841 -0.961172 114 87 64 255 3
-0.385145 -0.214765 0.034977 -0.303852 -0.019037 -0.952529 113 85 63 255 3
-0.384758 -0.218322 0.034931 -0.348755 -0.109709 -0.930770 110 83 62 255 3
-0.384301 -0.221879 0.035004 -0.404108 -0.230929 -0.885081 108 81 61 255 3
-0.383281 -0.225435 0.036020 -0.447640 -0.333511 -0.829692 107 80 60 255 3
-0.382119 -0.228993 0.037272 -0.483619 -0.405167 -0.775856 103 76 56 255 3
-0.380816 -0.232556 0.038760 -0.529345 -0.486719 -0.694909 101 73 53 255 3
-0.379160 -0.236125 0.040838 -0.549404 -0.579159 -0.602270 99 69 50 255 3
-0.376869 -0.239705 0.043978 -0.560018 -0.654863 -0.507478 95 67 49 255 3
-0.372743 -0.243312 0.050185 -0.556979 -0.692611 -0.458328 86 66 47 255 3
-0.430618 0.201941 0.046828 -0.525954 0.565717 -0.635088 88 63 45 255 3
-0.432334 0.197680 0.043112 -0.510032 0.508683 -0.693620 97 70 50 255 3
-0.433374 0.193653 0.040579 -0.488274 0.430599 -0.759060 101 75 55 255 3
-0.434278 0.189679 0.038284 -0.414931 0.365891 -0.833040 110 81 61 255 3
-0.434775 0.185843 0.036699 -0.369754 0.261402 -0.891600 116 86 63 255 3
-0.434730 0.182186 0.036062 -0.310006 0.157639 -0.937575 119 89 65 255 3
-0.434480 0.178595 0.035780 -0.240088 0.051546 -0.969382 119 90 66 255 3
-0.433891 0.175113 0.036089 -0.197725 0.008926 -0.980217 120 91 67 255 3
-0.433437 0.171586 0.036162 -0.143529 -0.019724 -0.989450 119 91 66 255 3
-0.432984 0.168059 0.036235 -0.085480 -0.044114 -0.995363 120 91 66 255 3
-0.432462 0.164553 0.036426 -0.039170 -0.054625 -0.997738 120 90 65 255 3
-0.432009 0.161025 0.036499 0.017662 -0.102426 -0.994584 120 89 64 255 3
-0.431555 0.157497 0.036572 0.062471 -0.158700 -0.985349 121 90 65 255 3
-0.431033 0.153989 0.036763 0.090930 -0.228166 -0.969367 117 87 63 255 3
-0.429830 0.150681 0.038138 0.139089 -0.338889 -0.930488 116 87 62 255 3
-0.428081 0.147527 0.040460 0.172632 -0.442648 -0.879921 116 85 61 255 3
