ply
format ascii 1.0
comment Created by labeled_geometry.py
element vertex 644
property float x
property float y
property float z
property float nx
property float ny
property float nz
property uchar red
property uchar green
property uchar blue
property uchar alpha
property uchar label
end_header
-0.212974 0.106394 -0.035911 -0.429952 0.167755 -0.887130 130 107 81 255 4
-0.219133 0.107223 -0.032716 -0.444499 0.180967 -0.877309 129 106 80 255 4
-0.225272 0.108240 -0.029243 -0.453448 0.192068 -0.870342 130 107 80 255 4
-0.231361 0.109634 -0.025217 -0.455473 0.200255 -0.867434 129 105 79 255 4
-0.237491 0.110837 -0.021466 -0.453923 0.205329 -0.867061 128 104 78 255 4
-0.243675 0.111754 -0.018129 -0.456342 0.206977 -0.865397 127 103 77 255 4
-0.249867 0.112670 -0.014791 -0.473037 0.208874 -0.855925 127 102 77 255 4
-0.256096 0.113396 -0.011729 -0.501832 0.205953 -0.840088 126 101 76 255 4
-0.262253 0.114688 -0.007836 -0.545482 0.202429 -0.813309 126 100 75 255 4
-0.268327 0.116639 -0.002975 -0.596146 0.199089 -0.777801 127 100 76 255 4
-0.274259 0.119721 0.003547 -0.651151 0.191817 -0.734308 125 98 74 255 4
-0.280172 0.123083 0.010485 -0.706887 0.171200 -0.686295 122 96 72 255 4
-0.285968 0.127479 0.018947 -0.768865 0.160908 -0.618834 119 94 71 255 4
-0.291641 0.133004 0.029071 -0.823446 0.133550 -0.551454 119 93 70 255 4
-0.296994 0.141258 0.043210 -0.874143 0.113706 -0.472169 117 90 68 255 4
-0.301736 0.154688 0.064963 -0.928845 0.050332 -0.367033 113 87 65 255 4
-0.306175 0.171123 0.091152 -0.946495 -0.071730 -0.314646 105 83 62 255 4
-0.397345 0.106449 0.022414 -0.728895 -0.236253 0.642570 115 94 71 255 1
-0.405544 0.086817 -0.004606 0.614997 0.261510 -0.743903 132 104 75 255 1
-0.412525 0.080033 -0.012631 0.593470 0.276480 -0.755878 131 104 77 255 1
-0.419470 0.073348 -0.020520 0.555794 0.301181 -0.774844 136 107 79 255 1
-0.426355 0.067041 -0.027857 0.539445 0.286702 -0.791708 136 106 79 255 1
-0.433191 0.061019 -0.034780 0.505819 0.262247 -0.821811 137 105 79 255 1
-0.439951 0.055655 -0.040733 0.446559 0.238195 -0.862467 137 105 78 255 1
-0.446632 0.051043 -0.045578 0.374854 0.208082 -0.903430 137 105 78 255 1
-0.453207 0.047649 -0.048620 0.298732 0.173469 -0.938439 136 106 79 255 1
-0.459737 0.044724 -0.050969 0.232573 0.149351 -0.961043 133 106 79 255 1
-0.466212 0.042454 -0.052346 0.189057 0.128855 -0.973475 130 104 78 255 1
-0.472669 0.040372 -0.053447 0.162260 0.102090 -0.981453 129 104 78 255 1
-0.479120 0.038291 -0.054548 0.156087 0.065028 -0.985600 127 102 77 255 1
-0.485583 0.035931 -0.056066 0.170152 0.025323 -0.985092 127 102 78 255 1
-0.492038 0.033572 -0.057584 0.179485 0.023195 -0.983487 130 104 80 255 1
-0.498477 0.031400 -0.058826 0.184874 0.016405 -0.982625 132 106 83 255 1
-0.504924 0.028950 -0.060485 0.179548 0.014020 -0.983649 133 107 83 255 1
-0.511345 0.026873 -0.061588 0.155941 0.006766 -0.987743 135 109 83 255 1
-0.517751 0.024984 -0.062414 0.125859 -0.002163 -0.992046 136 109 83 255 1
-0.524153 0.023095 -0.063241 0.097693 -0.012747 -0.995135 137 110 84 255 1
-0.530525 0.021765 -0.063233 0.066514 -0.010503 -0.997730 139 111 85 255 1
-0.536892 0.020529 -0.063087 0.040602 -0.015230 -0.999059 140 112 86 255 1
-0.543272 0.018921 -0.063497 0.010981 -0.037480 -0.999237 140 113 86 255 1
-0.549646 0.017406 -0.063768 -0.021632 -0.066335 -0.997563 138 112 86 255 1
-0.556004 0.016263 -0.063483 -0.050313 -0.085391 -0.995076 138 112 86 255 1
-0.562346 0.015585 -0.062502 -0.091753 -0.106828 -0.990035 137 112 86 255 1
-0.568693 0.014814 -0.061660 -0.130709 -0.132587 -0.982515 136 111 84 255 1
-0.575036 0.014228 -0.060539 -0.175851 -0.158619 -0.971554 136 110 84 255 1
-0.581379 0.013735 -0.059279 -0.216417 -0.176611 -0.960194 138 111 85 255 1
-0.587717 0.013520 -0.057602 -0.251089 -0.186237 -0.949879 138 110 84 255 1
-0.594057 0.013490 -0.055645 -0.293723 -0.198659 -0.935019 140 111 85 255 1
-0.600402 0.013366 -0.053827 -0.327217 -0.209651 -0.921398 139 110 84 255 1
-0.606749 0.013427 -0.051730 -0.367502 -0.215207 -0.904781 138 110 84 255 1
-0.613098 0.013765 -0.049215 -0.407892 -0.220160 -0.886089 134 106 80 255 1
-0.619449 0.014565 -0.046002 -0.457269 -0.220199 -0.861637 131 102 76 255 1
-0.625807 0.015641 -0.042371 -0.520407 -0.215014 -0.826405 125 95 70 255 1
-0.632176 0.016808 -0.038599 -0.575948 -0.202952 -0.791893 118 88 64 255 1
-0.638554 0.018621 -0.033850 -0.623654 -0.188999 -0.758509 110 81 57 255 1
-0.644947 0.020893 -0.028403 -0.675588 -0.177848 -0.715508 107 76 52 255 1
-0.651356 0.023349 -0.022676 -0.722094 -0.145401 -0.676342 105 74 50 255 1
-0.657785 0.026171 -0.016389 -0.783136 -0.101558 -0.613501 100 69 46 255 1
-0.664245 0.030375 -0.008007 -0.850980 -0.052764 -0.522540 96 68 46 255 1
-0.670798 0.040389 0.009166 -0.914649 0.008084 -0.404167 101 71 48 255 1
-0.677436 0.052610 0.029694 -0.949474 0.042951 -0.310893 102 70 49 255 1
0.682393 0.492717 0.277109 0.363525 0.599693 -0.712895 89 79 63 255 3
0.588681 0.292814 0.004356 0.437220 -0.169163 -0.883302 106 80 61 255 3
0.580172 0.287473 -0.001030 0.415890 -0.198288 -0.887535 109 81 58 255 3
0.572491 0.284010 -0.003837 0.405460 -0.216704 -0.888055 113 85 62 255 3
0.564865 0.280647 -0.006510 0.351455 -0.297277 -0.887753 115 89 65 255 3
0.557755 0.278469 -0.007554 0.291886 -0.362766 -0.884988 116 90 66 255 3
0.550608 0.276194 -0.008734 0.235126 -0.410357 -0.881092 117 91 67 255 3
0.543509 0.274017 -0.009779 0.163696 -0.469156 -0.867811 117 91 67 255 3
0.536706 0.272531 -0.009873 0.104732 -0.512183 -0.852467 116 90 66 255 3
0.529987 0.271242 -0.009696 0.014666 -0.565933 -0.824321 116 88 64 255 3
0.523310 0.270052 -0.009383 -0.089440 -0.625480 -0.775097 113 84 61 255 3
0.516960 0.269649 -0.007982 -0.174949 -0.680280 -0.711766 111 82 60 255 3
0.510607 0.269246 -0.006581 -0.212932 -0.705889 -0.675559 108 78 57 255 3
0.504693 0.269923 -0.003684 -0.354967 -0.759528 -0.545083 102 75 53 255 3
0.498972 0.271091 -0.000106 -0.458559 -0.761521 -0.458049 91 69 48 255 3
0.493479 0.272846 0.004289 -0.543607 -0.776841 -0.317819 81 56 40 255 3
0.488843 0.276760 0.011678 -0.603232 -0.759382 -0.243824 78 53 38 255 3
0.485010 0.282732 0.021926 -0.643412 -0.742907 -0.184689 72 60 46 255 3
0.497928 0.464839 0.293334 0.362489 0.534957 -0.763166 81 71 55 255 3
0.410281 0.250720 -0.002844 -0.706165 0.532514 0.466648 95 69 50 255 3
0.401230 0.243176 -0.011392 -0.684310 0.524221 0.506865 94 67 47 255 3
0.392648 0.236810 -0.018306 -0.670832 0.512994 0.535558 99 72 52 255 3
0.384708 0.232108 -0.022905 -0.624136 0.488890 0.609459 104 75 54 255 3
0.376642 0.227019 -0.028050 0.552344 -0.473090 -0.686369 107 78 57 255 3
0.369097 0.223299 -0.031289 0.479764 -0.467208 -0.742660 108 80 57 255 3
0.361637 0.219777 -0.034255 0.372326 -0.460094 -0.806032 110 82 59 255 3
0.354612 0.217428 -0.035586 0.299590 -0.455454 -0.838336 113 84 62 255 3
0.347840 0.215762 -0.035962 0.212936 -0.433660 -0.875556 113 84 62 255 3
0.341072 0.214096 -0.036338 0.125481 -0.409427 -0.903672 116 84 62 255 3
0.334237 0.212237 -0.036988 0.030816 -0.370765 -0.928215 116 83 61 255 3
0.327785 0.211449 -0.036137 -0.055832 -0.328356 -0.942903 116 83 62 255 3
0.321332 0.210662 -0.035285 -0.134474 -0.282713 -0.949732 117 84 63 255 3
0.314912 0.209972 -0.034297 -0.198605 -0.256099 -0.946028 118 85 64 255 3
0.308626 0.209670 -0.032762 -0.260029 -0.240209 -0.935246 120 88 66 255 3
0.302504 0.209855 -0.030545 -0.315930 -0.227584 -0.921083 121 91 69 255 3
0.296410 0.210136 -0.028190 -0.363545 -0.216378 -0.906099 121 91 69 255 3
0.290376 0.210611 -0.025561 -0.385631 -0.184136 -0.904092 121 91 70 255 3
0.284368 0.211182 -0.022795 -0.396847 -0.136949 -0.907611 121 92 70 255 3
0.278385 0.211849 -0.019892 -0.401537 -0.101291 -0.910224 122 91 69 255 3
0.272362 0.212418 -0.017125 -0.445934 -0.022148 -0.894792 122 90 68 255 3
0.266395 0.213180 -0.014083 -0.478770 0.021981 -0.877665 122 91 69 255 3
0.260867 0.215299 -0.009127 -0.561408 0.094989 -0.822070 120 95 76 255 3
0.254184 0.213923 -0.009092 -0.577756 0.123603 -0.806796 111 97 81 255 3
0.248918 0.216912 -0.002903 -0.623902 0.166028 -0.763663 102 96 83 255 3
0.243975 0.220964 0.004792 -0.641919 0.174398 -0.746676 91 92 81 255 3
-0.001725 0.147885 -0.027977 0.246551 0.315675 -0.916276 133 105 77 255 4
-0.009750 0.140403 -0.036755 0.249771 0.285472 -0.925268 127 97 71 255 4
-0.016691 0.137421 -0.039070 0.244618 0.232661 -0.941292 127 96 70 255 4
-0.023511 0.134917 -0.040698 0.247178 0.219528 -0.943775 129 97 72 255 4
-0.030499 0.131651 -0.043427 0.216135 0.185808 -0.958520 127 96 71 255 4
-0.037519 0.128195 -0.046433 0.200292 0.158642 -0.966807 124 96 71 255 4
-0.044377 0.125409 -0.048476 0.176841 0.159326 -0.971258 125 98 73 255 4
-0.050972 0.123770 -0.048868 0.150432 0.165850 -0.974610 126 99 74 255 4
-0.057626 0.121845 -0.049673 0.125175 0.177020 -0.976215 128 101 75 255 4
-0.064297 0.119826 -0.050617 0.111134 0.183421 -0.976732 130 103 77 255 4
-0.071024 0.117521 -0.051974 0.105262 0.181947 -0.977658 130 103 77 255 4
-0.077724 0.115312 -0.053194 0.110642 0.175757 -0.978196 131 105 79 255 4
-0.084398 0.113200 -0.054276 0.105245 0.161821 -0.981192 130 104 78 255 4
-0.091066 0.111089 -0.055359 0.098022 0.146172 -0.984391 131 105 80 255 4
-0.097710 0.109073 -0.056305 0.094969 0.134323 -0.986376 131 106 81 255 4
-0.104348 0.107059 -0.057251 0.087205 0.118072 -0.989168 132 107 82 255 4
-0.110943 0.105235 -0.057922 0.070410 0.105276 -0.991947 133 108 83 255 4
-0.117533 0.103412 -0.058594 0.050937 0.085359 -0.995047 133 108 83 255 4
-0.124120 0.101590 -0.059265 0.024726 0.081281 -0.996384 135 110 84 255 4
-0.130684 0.099863 -0.059799 -0.006927 0.084025 -0.996440 135 111 85 255 4
-0.137171 0.098517 -0.059782 -0.042963 0.085311 -0.995428 137 113 87 255 4
-0.143656 0.097171 -0.059765 -0.086732 0.090565 -0.992107 140 115 89 255 4
-0.150122 0.095920 -0.059610 -0.129445 0.091279 -0.987376 141 114 89 255 4
-0.156481 0.095239 -0.058627 -0.174906 0.092156 -0.980263 141 114 88 255 4
-0.162738 0.095127 -0.056816 -0.232018 0.097065 -0.967856 140 113 87 255 4
-0.169016 0.094919 -0.055143 -0.272780 0.092008 -0.957667 139 111 85 255 4
-0.175248 0.094995 -0.053055 -0.306825 0.084026 -0.948050 138 111 84 255 4
-0.181484 0.095070 -0.050966 -0.328649 0.085638 -0.940562 135 109 84 255 4
-0.187644 0.095618 -0.048187 -0.349043 0.088005 -0.932965 133 109 83 255 4
-0.193859 0.095881 -0.045821 -0.363699 0.091152 -0.927046 133 109 83 255 4
-0.200081 0.096143 -0.043455 -0.378584 0.099292 -0.920226 132 108 82 255 4
-0.206261 0.096688 -0.040674 -0.395540 0.110136 -0.911821 131 107 81 255 4
-0.212449 0.097232 -0.037892 -0.414411 0.123517 -0.901669 131 107 81 255 4
-0.218614 0.097964 -0.034833 -0.431872 0.137552 -0.891384 131 107 81 255 4
-0.224773 0.098789 -0.031635 -0.445658 0.154735 -0.881729 130 106 80 255 4
-0.230881 0.099991 -0.027884 -0.452033 0.167092 -0.876211 128 104 79 255 4
-0.236985 0.101285 -0.023993 -0.453578 0.176412 -0.873582 127 103 78 255 4
-0.243157 0.102200 -0.020654 -0.456828 0.182115 -0.870714 127 102 77 255 4
-0.249367 0.102926 -0.017591 -0.470510 0.185592 -0.862656 127 102 77 255 4
-0.255558 0.103838 -0.014251 -0.495947 0.184735 -0.848475 127 101 76 255 4
-0.261731 0.104938 -0.010633 -0.541352 0.189687 -0.819119 127 101 76 255 4
-0.267807 0.106790 -0.005907 -0.581885 0.188256 -0.791182 127 100 76 255 4
-0.273792 0.109394 -0.000073 -0.641998 0.192484 -0.742151 125 99 74 255 4
-0.279730 0.112466 0.006455 -0.699601 0.185931 -0.689919 124 97 74 255 4
-0.285485 0.117042 0.015199 -0.764672 0.174620 -0.620310 122 96 73 255 4
-0.291206 0.122084 0.024638 -0.811770 0.161532 -0.561193 121 94 71 255 4
-0.296578 0.130038 0.038373 -0.845253 0.166877 -0.507641 119 91 69 255 4
-0.301348 0.143065 0.059590 -0.909594 0.136100 -0.392576 116 92 69 255 4
-0.305131 0.164542 0.093279 -0.944561 -0.033421 -0.326632 104 88 65 255 4
-0.397550 0.086508 0.004486 -0.681565 -0.290871 0.671463 130 100 73 255 1
-0.404821 0.076834 -0.007847 0.621233 0.276597 -0.733188 133 106 77 255 1
-0.411793 0.070064 -0.015881 0.596889 0.268711 -0.755988 135 106 79 255 1
-0.418681 0.063953 -0.022946 0.573891 0.264037 -0.775199 135 104 78 255 1
-0.425527 0.058033 -0.029735 0.554722 0.244954 -0.795161 135 105 79 255 1
-0.432357 0.052023 -0.036665 0.514579 0.223965 -0.827676 137 105 79 255 1
-0.439110 0.046670 -0.042625 0.463180 0.177578 -0.868292 138 106 79 255 1
-0.445756 0.042440 -0.046920 0.387504 0.132081 -0.912357 137 106 79 255 1
-0.452317 0.039146 -0.049827 0.298621 0.102327 -0.948870 135 106 79 255 1
-0.458826 0.036412 -0.051901 0.225211 0.074000 -0.971496 130 103 77 255 1
-0.465283 0.034333 -0.053003 0.181578 0.036663 -0.982693 128 103 78 255 1
-0.471727 0.032347 -0.053966 0.161410 0.006903 -0.986863 126 101 77 255 1
-0.478166 0.030363 -0.054930 0.160882 -0.023717 -0.986689 125 100 76 255 1
-0.484600 0.028379 -0.055894 0.177698 -0.044188 -0.983092 125 99 74 255 1
-0.491046 0.026116 -0.057276 0.193779 -0.077737 -0.977961 131 102 78 255 1
-0.497495 0.023669 -0.058937 0.213448 -0.080245 -0.973653 134 105 80 255 1
-0.503927 0.021409 -0.060320 0.211635 -0.088831 -0.973303 136 108 83 255 1
-0.510338 0.019428 -0.061287 0.190871 -0.098681 -0.976642 137 109 84 255 1
-0.516754 0.017263 -0.062532 0.153178 -0.103891 -0.982722 137 110 84 255 1
-0.523141 0.015562 -0.063082 0.115666 -0.100632 -0.988177 138 111 85 255 1
-0.529517 0.014048 -0.063353 0.079905 -0.106808 -0.991064 140 112 85 255 1
-0.535878 0.012814 -0.063208 0.042630 -0.101741 -0.993897 139 112 86 255 1
-0.542242 0.011486 -0.063201 0.008406 -0.112833 -0.993578 140 113 86 255 1
-0.548600 0.010251 -0.063056 -0.026237 -0.127045 -0.991550 140 113 86 255 1
-0.554948 0.009295 -0.062493 -0.063661 -0.131156 -0.989316 139 112 86 255 1
-0.561295 0.008339 -0.061930 -0.103562 -0.157586 -0.982060 138 113 87 255 1
-0.567629 0.007846 -0.060670 -0.144901 -0.168435 -0.975004 139 114 88 255 1
-0.573968 0.007261 -0.059549 -0.185875 -0.185378 -0.964928 139 113 87 255 1
-0.580304 0.006860 -0.058150 -0.221586 -0.197472 -0.954937 139 112 86 255 1
-0.586637 0.006736 -0.056332 -0.257506 -0.209281 -0.943341 140 112 86 255 1
-0.592972 0.006704 -0.054375 -0.298441 -0.223997 -0.927771 142 113 87 255 1
-0.599312 0.006672 -0.052417 -0.328959 -0.239474 -0.913476 142 113 87 255 1
-0.605655 0.006731 -0.050319 -0.372748 -0.247183 -0.894405 140 113 87 255 1
-0.612001 0.006974 -0.047941 -0.412120 -0.253838 -0.875056 137 110 84 255 1
-0.618347 0.007863 -0.044587 -0.457219 -0.256215 -0.851648 133 105 78 255 1
-0.624702 0.008935 -0.040953 -0.511056 -0.252759 -0.821544 128 99 73 255 1
-0.631067 0.009914 -0.037458 -0.563419 -0.246866 -0.788427 121 91 67 255 1
-0.637440 0.011352 -0.033264 -0.614007 -0.237805 -0.752625 114 84 60 255 1
-0.643827 0.013896 -0.027394 -0.668132 -0.223007 -0.709836 109 78 54 255 1
-0.650231 0.016160 -0.021942 -0.716626 -0.207758 -0.665796 105 74 50 255 1
-0.656653 0.018882 -0.015790 -0.757295 -0.189377 -0.625013 103 71 47 255 1
-0.663097 0.021878 -0.009217 -0.830893 -0.147438 -0.536544 98 67 44 255 1
-0.669617 0.030121 0.005317 -0.889264 -0.074102 -0.451352 100 69 47 255 1
-0.676230 0.041763 0.025023 -0.954695 -0.013103 -0.297299 104 71 50 255 1
0.597764 0.291144 0.011346 0.427956 -0.150526 -0.891176 102 80 61 255 3
0.588806 0.284824 0.004598 0.424963 -0.167400 -0.889598 109 81 59 255 3
0.580729 0.280477 0.000566 0.391599 -0.225266 -0.892135 114 84 61 255 3
0.573178 0.277315 -0.001838 0.349312 -0.275533 -0.895580 117 88 64 255 3
0.565850 0.274647 -0.003562 0.300715 -0.340790 -0.890748 118 90 66 255 3
0.558740 0.272471 -0.004608 0.259724 -0.383839 -0.886121 118 91 66 255 3
0.551594 0.270198 -0.005789 0.201974 -0.436667 -0.876657 118 91 66 255 3
0.544621 0.268319 -0.006428 0.137742 -0.485142 -0.863519 118 90 66 255 3
0.537817 0.266834 -0.006523 0.058923 -0.535900 -0.842223 116 88 64 255 3
0.531098 0.265546 -0.006346 -0.038196 -0.595220 -0.802654 114 85 62 255 3
0.524667 0.264945 -0.005217 -0.117036 -0.652680 -0.748539 111 82 60 255 3
0.518316 0.264541 -0.003815 -0.190153 -0.699895 -0.688468 108 79 58 255 3
0.512084 0.264431 -0.002005 -0.290313 -0.743663 -0.602233 108 79 58 255 3
0.506371 0.265595 0.001575 -0.404784 -0.772392 -0.489450 96 72 51 255 3
0.500607 0.266660 0.005019 -0.516240 -0.781102 -0.351249 82 63 44 255 3
0.495829 0.270174 0.011869 -0.573071 -0.770663 -0.278691 76 55 41 255 3
0.491188 0.274077 0.019265 -0.607973 -0.765371 -0.211129 78 58 44 255 3
0.491001 0.454918 0.293757 0.353054 0.540995 -0.763333 85 72 54 255 3
0.403409 0.240329 -0.004097 -0.708191 0.529292 0.467243 94 70 50 255 3
0.394891 0.234167 -0.010745 -0.696221 0.519940 0.494912 96 70 50 255 3
0.386289 0.227717 -0.017804 -0.652648 0.497058 0.571825 99 72 51 255 3
0.378219 0.222636 -0.022955 0.595340 -0.492074 -0.635164 105 76 54 255 3
0.370419 0.218239 -0.027152 0.510139 -0.485829 -0.709739 106 78 56 255 3
0.363063 0.215014 -0.029712 0.428150 -0.484853 -0.762630 109 80 58 255 3
0.355753 0.211888 -0.032136 0.325760 -0.469925 -0.820397 112 83 60 255 3
0.348945 0.210126 -0.032650 0.263426 -0.450255 -0.853157 114 83 61 255 3
0.342142 0.208365 -0.033164 0.185697 -0.417470 -0.889514 115 83 61 255 3
0.335203 0.206215 -0.034224 0.098829 -0.384841 -0.917677 116 83 61 255 3
0.328511 0.204747 -0.034329 -0.000350 -0.346308 -0.938121 117 84 62 255 3
0.322061 0.203959 -0.033477 -0.096041 -0.307880 -0.946565 117 84 63 255 3
0.315644 0.203269 -0.032489 -0.179026 -0.273274 -0.945130 118 86 64 255 3
0.309192 0.202481 -0.031637 -0.241145 -0.256661 -0.935935 120 88 67 255 3
0.303175 0.202955 -0.029008 -0.302260 -0.241128 -0.922224 121 91 69 255 3
0.297118 0.203332 -0.026515 -0.326300 -0.198682 -0.924150 122 92 70 255 3
0.291088 0.203804 -0.023885 -0.339504 -0.151714 -0.928289 121 91 69 255 3
0.285083 0.204372 -0.021118 -0.342901 -0.118533 -0.931863 121 92 70 255 3
0.279071 0.204939 -0.018349 -0.357040 -0.055052 -0.932465 122 93 71 255 3
0.273084 0.205602 -0.015444 -0.391202 -0.005719 -0.920287 118 93 72 255 3
0.266865 0.205586 -0.013495 -0.439595 0.061192 -0.896109 112 96 80 255 3
0.259778 0.202954 -0.015241 -0.455430 0.101290 -0.884491 112 105 92 255 3
0.254316 0.205260 -0.010007 -0.551106 0.161870 -0.818584 107 103 92 255 3
0.249121 0.208436 -0.003540 -0.586943 0.165005 -0.792635 102 101 91 255 3
0.243844 0.211415 0.002655 -0.597188 0.211057 -0.773835 94 95 84 255 3
0.239757 0.218163 0.014192 -0.619200 0.215840 -0.754986 90 93 83 255 3
0.013852 0.150354 -0.017030 0.177719 0.388875 -0.903987 119 98 73 255 4
0.005154 0.140299 -0.029528 0.206576 0.342234 -0.916626 130 100 74 255 4
-0.002469 0.134549 -0.035836 0.219825 0.290199 -0.931376 129 100 75 255 4
-0.009503 0.131188 -0.038704 0.214219 0.232511 -0.948709 128 99 74 255 4
-0.016301 0.128783 -0.040196 0.232543 0.214240 -0.948697 129 99 74 255 4
-0.023181 0.125998 -0.042240 0.216267 0.138838 -0.966412 127 98 73 255 4
-0.030073 0.123119 -0.044422 0.220307 0.134146 -0.966162 125 97 72 255 4
-0.037001 0.120050 -0.046881 0.207779 0.117747 -0.971063 126 98 73 255 4
-0.043982 0.116698 -0.049753 0.193519 0.120473 -0.973672 126 99 73 255 4
-0.050611 0.114871 -0.050422 0.171137 0.128826 -0.976789 129 101 75 255 4
-0.057300 0.112759 -0.051505 0.150310 0.133675 -0.979560 131 104 77 255 4
-0.063941 0.110838 -0.052313 0.131450 0.145872 -0.980532 131 105 78 255 4
-0.070640 0.108632 -0.053534 0.118539 0.139053 -0.983165 131 105 79 255 4
-0.077332 0.106428 -0.054757 0.112749 0.133309 -0.984640 132 106 80 255 4
-0.083998 0.104319 -0.055841 0.104366 0.130692 -0.985915 133 107 81 255 4
-0.090599 0.102496 -0.056513 0.090833 0.120077 -0.988601 133 108 82 255 4
-0.097235 0.100484 -0.057461 0.082499 0.106118 -0.990925 133 108 83 255 4
-0.103847 0.098568 -0.058271 0.074139 0.085042 -0.993615 133 108 83 255 4
-0.110415 0.096842 -0.058806 0.061033 0.067161 -0.995874 133 109 83 255 4
-0.116999 0.095022 -0.059479 0.045922 0.051368 -0.997623 134 109 84 255 4
-0.123579 0.093202 -0.060152 0.027587 0.040751 -0.998788 133 109 83 255 4
-0.130062 0.091857 -0.060136 0.004357 0.038418 -0.999252 134 110 84 255 4
-0.136543 0.090513 -0.060120 -0.032468 0.038030 -0.998749 136 112 85 255 4
-0.143004 0.089264 -0.059965 -0.069707 0.030979 -0.997086 137 112 85 255 4
-0.149482 0.087920 -0.059949 -0.119163 0.034577 -0.992272 138 112 85 255 4
-0.155800 0.087428 -0.058691 -0.169411 0.035203 -0.984917 140 113 86 255 4
-0.162103 0.087031 -0.057293 -0.225353 0.034674 -0.973660 138 111 85 255 4
-0.168408 0.086634 -0.055896 -0.268515 0.033136 -0.962705 138 111 84 255 4
-0.174632 0.086708 -0.053807 -0.299318 0.041626 -0.953245 137 111 84 255 4
-0.180844 0.086877 -0.051580 -0.323754 0.043335 -0.945148 136 110 84 255 4
-0.187030 0.087234 -0.049076 -0.344507 0.049526 -0.937477 135 110 83 255 4
-0.193237 0.087496 -0.046709 -0.359636 0.054037 -0.931527 135 110 84 255 4
-0.199435 0.087851 -0.044204 -0.372859 0.062786 -0.925761 133 109 83 255 4
-0.205640 0.088205 -0.041698 -0.384434 0.068162 -0.920632 132 107 81 255 4
-0.211835 0.088652 -0.039053 -0.401778 0.079078 -0.912317 132 107 82 255 4
-0.218022 0.089193 -0.036269 -0.420652 0.092548 -0.902489 130 106 80 255 4
-0.224186 0.089921 -0.033208 -0.434833 0.106029 -0.894247 130 107 81 255 4
-0.230330 0.090837 -0.029869 -0.444861 0.123966 -0.886978 128 105 79 255 4
-0.236439 0.092034 -0.026115 -0.449988 0.136493 -0.882542 128 104 78 255 4
-0.242601 0.092946 -0.022774 -0.454533 0.146214 -0.878648 128 103 78 255 4
-0.248787 0.093763 -0.019571 -0.468237 0.153559 -0.870157 128 103 77 255 4
-0.254981 0.094579 -0.016368 -0.492971 0.157339 -0.855701 128 101 76 255 4
-0.261171 0.095488 -0.013025 -0.529917 0.158987 -0.833013 127 101 76 255 4
-0.267276 0.097053 -0.008712 -0.577338 0.151075 -0.802407 127 100 75 255 4
-0.273302 0.099275 -0.003428 -0.632987 0.165939 -0.756169 126 100 76 255 4
-0.279266 0.102059 0.002688 -0.676387 0.177650 -0.714801 125 98 74 255 4
-0.284981 0.106812 0.011716 -0.759529 0.176107 -0.626180 123 96 73 255 4
-0.290700 0.111750 0.021023 -0.793583 0.180903 -0.580947 120 93 70 255 4
-0.296216 0.118467 0.032966 -0.829176 0.187884 -0.526466 121 91 68 255 4
-0.301541 0.126961 0.047547 -0.846495 0.205866 -0.490984 123 94 70 255 4
-0.305171 0.149334 0.082650 -0.912327 0.107025 -0.395229 115 95 70 255 4
-0.389359 0.087960 0.016226 -0.719938 -0.299226 0.626221 118 95 70 255 1
-0.396951 0.075311 -0.000560 0.672265 0.287229 -0.682319 131 100 72 255 1
-0.404033 0.067617 -0.009989 0.630239 0.260176 -0.731510 130 103 75 255 1
-0.410974 0.061141 -0.017615 0.609355 0.240026 -0.755694 134 105 78 255 1
-0.417839 0.055228 -0.024409 0.587104 0.222277 -0.778397 134 104 78 255 1
-0.424711 0.048946 -0.031761 0.565783 0.197564 -0.800536 135 104 78 255 1
-0.431548 0.042762 -0.038977 0.526263 0.141319 -0.838496 139 106 80 255 1
-0.438272 0.037699 -0.044526 0.456725 0.091333 -0.884907 138 106 80 255 1
-0.444875 0.033943 -0.048131 0.386823 0.047363 -0.920937 136 105 79 255 1
-0.451402 0.031027 -0.050485 0.301266 0.015049 -0.953421 134 104 78 255 1
-0.457885 0.028578 -0.052145 0.224501 -0.009386 -0.974429 130 103 76 255 1
-0.464329 0.026595 -0.053110 0.165091 -0.049003 -0.985060 128 103 78 255 1
-0.470756 0.024798 -0.053797 0.148729 -0.084746 -0.985240 126 102 78 255 1
-0.477178 0.023002 -0.054484 0.153104 -0.115729 -0.981410 123 98 76 255 1
-0.483591 0.021300 -0.055033 0.171339 -0.140960 -0.975076 120 93 70 255 1
-0.490022 0.019227 -0.056139 0.195143 -0.171660 -0.965635 124 94 70 255 1
-0.496457 0.016969 -0.057523 0.225444 -0.184458 -0.956635 133 102 77 255 2
-0.502892 0.014619 -0.059048 0.239240 -0.201875 -0.949742 136 105 80 255 1
-0.509319 0.012270 -0.060573 0.228258 -0.204279 -0.951929 137 107 82 255 1
-0.515712 0.010479 -0.061263 0.181118 -0.207513 -0.961319 138 109 83 255 1
-0.522097 0.008780 -0.061814 0.145492 -0.210463 -0.966715 139 111 85 255 1
-0.528482 0.006990 -0.062504 0.108141 -0.202462 -0.973301 141 112 85 255 1
-0.534854 0.005386 -0.062917 0.066983 -0.200689 -0.977362 142 113 86 255 1
-0.541209 0.004153 -0.062772 0.026220 -0.201131 -0.979213 143 115 88 255 1
-0.547546 0.003382 -0.061931 -0.011054 -0.189529 -0.981813 142 115 87 255 1
-0.553889 0.002427 -0.061368 -0.057778 -0.197663 -0.978566 141 114 87 255 1
-0.560236 0.001379 -0.060944 -0.105838 -0.209138 -0.972142 139 114 88 255 1
-0.566580 0.000423 -0.060382 -0.149391 -0.218004 -0.964446 139 115 89 255 1
-0.572906 0.000115 -0.058843 -0.182452 -0.219928 -0.958302 138 114 87 255 1
-0.579230 -0.000010 -0.057025 -0.222170 -0.228735 -0.947798 139 113 87 255 1
-0.585557 -0.000042 -0.055066 -0.267450 -0.240702 -0.933024 141 114 87 255 1
-0.591888 -0.000076 -0.053108 -0.299593 -0.254077 -0.919614 143 115 88 255 1
-0.598224 -0.000110 -0.051149 -0.335504 -0.266656 -0.903511 142 114 87 255 1
-0.604561 0.000133 -0.048771 -0.370258 -0.270508 -0.888670 142 114 88 255 1
-0.610901 0.000558 -0.046113 -0.413752 -0.283358 -0.865169 139 112 85 255 1
-0.617246 0.001259 -0.043036 -0.455870 -0.290414 -0.841334 135 108 81 255 1
-0.623597 0.002328 -0.039400 -0.504618 -0.290692 -0.812932 131 102 75 255 1
-0.629958 0.003210 -0.036042 -0.555358 -0.291868 -0.778711 124 94 68 255 1
-0.636328 0.004552 -0.031985 -0.602091 -0.282797 -0.746667 118 87 62 255 1
-0.642709 0.006904 -0.026390 -0.665323 -0.267156 -0.697117 111 80 56 255 1
-0.649108 0.009254 -0.020794 -0.717161 -0.257356 -0.647648 106 75 50 255 1
-0.655523 0.011601 -0.015196 -0.767215 -0.236258 -0.596291 102 71 46 255 1
-0.661967 0.015417 -0.007361 -0.821011 -0.212738 -0.529796 102 68 44 255 1
-0.668441 0.019873 0.001455 -0.870674 -0.157617 -0.465923 98 66 45 255 1
-0.675046 0.032224 0.022295 -0.955545 -0.079512 -0.283923 100 71 50 255 1
-0.681915 0.057238 0.062434 -0.972446 0.003401 -0.233104 84 72 54 255 1
0.689440 0.476036 0.276094 0.331909 0.576087 -0.746967 95 82 64 255 3
0.597191 0.281578 0.009414 0.407359 -0.161045 -0.898957 111 82 61 255 3
0.588972 0.276941 0.004971 0.397169 -0.194115 -0.896982 115 84 62 255 3
0.581456 0.273881 0.002701 0.365207 -0.247786 -0.897344 118 87 63 255 3
0.573950 0.270821 0.000431 0.320286 -0.309793 -0.895235 118 87 63 255 3
0.566835 0.268647 -0.000615 0.272274 -0.367525 -0.889265 121 92 68 255 3
0.559725 0.266474 -0.001662 0.225638 -0.413911 -0.881910 119 92 67 255 3
0.552705 0.264498 -0.002438 0.168451 -0.463074 -0.870164 119 92 67 255 3
0.545773 0.262720 -0.002941 0.101672 -0.511551 -0.853217 117 90 65 255 3
0.538970 0.261235 -0.003036 0.011082 -0.566919 -0.823699 115 87 63 255 3
0.532415 0.260340 -0.002315 -0.095473 -0.631685 -0.769323 112 84 61 255 3
0.526025 0.259837 -0.001049 -0.189549 -0.689476 -0.699066 109 81 59 255 3
0.519673 0.259431 0.000353 -0.238969 -0.730704 -0.639504 109 81 59 255 3
0.513845 0.260298 0.003527 -0.361393 -0.768011 -0.528729 102 74 55 255 3
0.508089 0.261360 0.006973 -0.450299 -0.782442 -0.430134 86 64 46 255 3
0.502844 0.263692 0.012192 -0.544318 -0.778407 -0.312732 77 60 43 255 3
0.498182 0.267490 0.019456 -0.561661 -0.788008 -0.252152 77 59 46 255 3
0.494883 0.274708 0.031493 -0.614891 -0.771400 -0.163862 71 66 52 255 3
0.407321 0.242048 0.009621 -0.727522 0.532555 0.432547 89 73 55 255 3
0.397064 0.231319 -0.003450 -0.708886 0.521107 0.475320 94 68 50 255 3
0.388417 0.224781 -0.010652 -0.698945 0.516767 0.494396 99 71 51 255 3
0.379905 0.218539 -0.017446 -0.633189 0.502431 0.588757 103 73 51 255 3
0.371777 0.213274 -0.022877 0.554472 -0.515799 -0.653079 104 74 53 255 3
0.364490 0.210248 -0.025166 0.486210 -0.498890 -0.717432 106 77 55 255 3
0.357212 0.207223 -0.027456 0.389663 -0.487350 -0.781443 110 80 58 255 3
0.350050 0.204491 -0.029338 0.315810 -0.455473 -0.832351 113 82 60 255 3
0.343107 0.202343 -0.030399 0.239562 -0.433845 -0.868556 114 82 60 255 3
0.336168 0.200195 -0.031462 0.165895 -0.401088 -0.900892 116 83 61 255 3
0.329270 0.198146 -0.032387 0.056647 -0.368415 -0.927934 118 84 62 255 3
0.322823 0.197359 -0.031536 -0.048164 -0.335787 -0.940706 119 85 63 255 3
0.316409 0.196668 -0.030547 -0.142050 -0.299505 -0.943461 120 87 65 255 3
0.309993 0.195977 -0.029559 -0.211106 -0.277340 -0.937292 120 88 66 255 3
0.303879 0.196158 -0.027339 -0.266917 -0.238568 -0.933724 120 90 68 255 3
0.297825 0.196532 -0.024844 -0.283273 -0.161793 -0.945293 121 92 69 255 3
0.291798 0.197002 -0.022213 -0.299023 -0.116656 -0.947088 121 92 69 255 3
0.285798 0.197567 -0.019443 -0.288944 -0.098002 -0.952317 120 93 72 255 3
0.279724 0.197938 -0.016947 -0.302348 -0.034832 -0.952561 119 96 76 255 3
0.272671 0.195406 -0.018558 -0.294055 0.058807 -0.953978 112 101 85 255 3
0.266462 0.195390 -0.016609 -0.347711 0.099965 -0.932257 111 108 95 255 3
0.260281 0.195469 -0.014523 -0.423385 0.145697 -0.894157 110 110 98 255 3
0.254381 0.196417 -0.011204 -0.477652 0.171682 -0.861611 107 107 96 255 3
0.249164 0.199488 -0.004869 -0.561105 0.216620 -0.798898 106 107 96 255 3
0.243834 0.202267 0.001057 -0.571696 0.219229 -0.790634 102 102 91 255 3
0.239045 0.206781 0.009451 -0.591084 0.233002 -0.772224 97 97 87 255 3
0.160029 0.173204 -0.016534 -0.013883 0.616922 -0.786902 102 87 67 255 4
0.153314 0.171549 -0.016917 -0.059422 0.589840 -0.805331 106 88 65 255 4
0.146602 0.169896 -0.017301 -0.075695 0.593342 -0.801383 111 89 66 255 4
0.139893 0.168242 -0.017684 -0.117378 0.601587 -0.790136 110 89 66 255 4
0.133216 0.166685 -0.017931 -0.139861 0.594161 -0.792093 106 88 65 255 4
0.127087 0.167048 -0.015430 -0.159279 0.598341 -0.785250 99 85 64 255 4
0.035093 0.150160 -0.011882 0.092626 0.472530 -0.876433 107 91 70 255 4
0.026630 0.141354 -0.022595 0.116762 0.429078 -0.895689 121 96 73 255 4
0.019197 0.136560 -0.027528 0.131783 0.397186 -0.908227 130 99 74 255 4
0.011806 0.131865 -0.032325 0.157290 0.364845 -0.917686 130 99 74 255 4
0.004804 0.128698 -0.034920 0.165554 0.315141 -0.934494 131 100 75 255 4
-0.002302 0.125056 -0.038204 0.153057 0.247986 -0.956596 130 101 75 255 4
-0.009100 0.122655 -0.039698 0.183589 0.198054 -0.962845 131 101 75 255 4
-0.015981 0.119873 -0.041744 0.208494 0.150322 -0.966403 129 100 74 255 4
-0.022653 0.117950 -0.042550 0.212612 0.131497 -0.968248 128 100 75 255 4
-0.029519 0.115170 -0.044597 0.212547 0.102797 -0.971729 128 100 75 255 4
-0.036528 0.111727 -0.047611 0.212150 0.092820 -0.972819 128 100 74 255 4
-0.043503 0.108380 -0.050487 0.205991 0.084551 -0.974894 129 101 76 255 4
-0.050147 0.106461 -0.051296 0.190870 0.086573 -0.977790 130 103 77 255 4
-0.056745 0.104732 -0.051829 0.172926 0.093795 -0.980459 131 104 78 255 4
-0.063505 0.102244 -0.053466 0.151237 0.093622 -0.984054 133 107 81 255 4
-0.070279 0.099663 -0.055242 0.136298 0.093563 -0.986240 133 107 81 255 4
-0.076943 0.097557 -0.056328 0.121225 0.094308 -0.988135 134 109 82 255 4
-0.083541 0.095736 -0.057001 0.107085 0.094032 -0.989793 135 108 83 255 4
-0.090154 0.093822 -0.057813 0.088886 0.083902 -0.992502 134 109 84 255 4
-0.096744 0.092003 -0.058486 0.073378 0.070274 -0.994825 135 110 84 255 4
-0.103290 0.090374 -0.058884 0.062667 0.056631 -0.996426 134 110 84 255 4
-0.109852 0.088650 -0.059421 0.050793 0.043785 -0.997749 134 111 84 255 4
-0.116411 0.086928 -0.059957 0.036976 0.031002 -0.998835 134 110 84 255 4
-0.122909 0.085490 -0.060080 0.023335 0.023325 -0.999456 134 111 84 255 4
-0.129387 0.084146 -0.060064 0.000994 0.012587 -0.999920 134 110 83 255 4
-0.135863 0.082804 -0.060049 -0.030540 0.001980 -0.999532 137 112 85 255 4
-0.142336 0.081461 -0.060034 -0.070098 -0.004597 -0.997530 137 111 84 255 4
-0.148809 0.080119 -0.060019 -0.115382 -0.003575 -0.993315 138 111 85 255 4
-0.155120 0.079627 -0.058760 -0.162725 -0.005534 -0.986656 137 111 84 255 4
-0.161434 0.079135 -0.057501 -0.213404 -0.005591 -0.976948 137 110 84 255 4
-0.167751 0.078643 -0.056241 -0.256661 -0.002074 -0.966499 138 110 84 255 4
-0.173968 0.078717 -0.054152 -0.290845 0.003795 -0.956763 137 111 84 255 4
-0.180157 0.078979 -0.051785 -0.314124 0.009380 -0.949336 137 111 85 255 4
-0.186352 0.079239 -0.049418 -0.335003 0.016669 -0.942070 136 110 84 255 4
-0.192569 0.079405 -0.047189 -0.350916 0.024326 -0.936091 135 109 83 255 4
-0.198776 0.079664 -0.044821 -0.363550 0.033728 -0.930964 135 109 83 255 4
-0.204989 0.079922 -0.042452 -0.376150 0.040564 -0.925670 133 107 81 255 4
-0.211192 0.080273 -0.039945 -0.392329 0.048822 -0.918528 132 106 80 255 4
-0.217387 0.080718 -0.037298 -0.409240 0.054637 -0.910789 132 106 81 255 4
-0.223573 0.081256 -0.034512 -0.424061 0.065570 -0.903257 130 106 80 255 4
-0.229737 0.081980 -0.031449 -0.434906 0.081988 -0.896736 130 104 79 255 4
-0.235866 0.082986 -0.027969 -0.442290 0.095079 -0.891818 129 104 78 255 4
-0.242019 0.083896 -0.024627 -0.448731 0.106395 -0.887311 129 103 78 255 4
-0.248209 0.084616 -0.021561 -0.463898 0.115440 -0.878335 128 102 76 255 4
-0.254394 0.085430 -0.018356 -0.488653 0.121340 -0.863999 128 101 75 255 4
-0.260588 0.086242 -0.015150 -0.517453 0.122624 -0.846880 127 100 75 255 4
-0.266723 0.087522 -0.011251 -0.565527 0.119852 -0.815975 125 98 74 255 4
-0.272711 0.089926 -0.005686 -0.628011 0.126528 -0.767849 126 99 75 255 4
-0.278715 0.092328 -0.000121 -0.677426 0.139439 -0.722254 126 99 75 255 4
-0.284596 0.095759 0.006972 -0.733712 0.165498 -0.658997 125 98 74 255 4
-0.290237 0.101155 0.016979 -0.787832 0.171945 -0.591402 122 95 71 255 4
-0.295798 0.107389 0.028238 -0.819214 0.189532 -0.541263 123 94 69 255 4
-0.301298 0.114367 0.040610 -0.807831 0.214896 -0.548844 123 94 68 255 4
-0.306188 0.126488 0.060617 -0.813293 0.247586 -0.526550 122 97 71 255 4
-0.380912 0.091629 0.031315 -0.696190 -0.320605 0.642287 110 93 71 255 1
-0.388929 0.075175 0.008818 -0.698749 -0.299757 0.649534 128 100 71 255 1
-0.396191 0.065908 -0.002981 0.653804 0.254580 -0.712552 127 97 70 255 1
-0.403206 0.058881 -0.011446 0.633188 0.233713 -0.737869 131 104 77 255 1
-0.410124 0.052604 -0.018801 0.612720 0.208330 -0.762347 135 106 79 255 1
-0.416992 0.046610 -0.025742 0.593935 0.174265 -0.785413 136 105 79 255 1
-0.423858 0.040341 -0.033102 0.569875 0.128219 -0.811667 137 104 78 255 1
-0.430644 0.034726 -0.039490 0.529582 0.073974 -0.845027 138 105 79 255 1
-0.437326 0.030138 -0.044350 0.461301 0.010830 -0.887178 137 104 79 255 1
-0.443932 0.026296 -0.048098 0.389382 -0.042800 -0.920082 136 105 79 255 1
-0.450468 0.023199 -0.050734 0.307380 -0.070599 -0.948964 135 105 79 255 1
-0.456926 0.021032 -0.051978 0.226972 -0.110650 -0.967595 131 104 78 255 1
-0.463346 0.019330 -0.052527 0.153191 -0.147867 -0.977071 129 104 78 255 1
-0.469743 0.017908 -0.052659 0.135815 -0.168415 -0.976315 126 102 79 255 1
-0.476150 0.016300 -0.053069 0.140535 -0.197757 -0.970125 124 100 78 255 1
-0.482507 0.015434 -0.052365 0.160115 -0.217972 -0.962731 113 88 67 255 1
-0.488904 0.013919 -0.052636 0.197235 -0.236635 -0.951369 111 83 63 255 1
-0.495405 0.010552 -0.055695 0.227730 -0.263386 -0.937426 124 94 70 255 1
-0.501827 0.008391 -0.056942 0.255837 -0.278096 -0.925856 131 101 76 255 1
-0.508243 0.006230 -0.058191 0.252964 -0.290795 -0.922739 136 105 80 255 1
-0.514640 0.004348 -0.059021 0.216177 -0.303256 -0.928064 136 106 81 255 1
-0.521036 0.002375 -0.059992 0.178510 -0.306403 -0.935014 137 108 83 255 1
-0.527423 0.000494 -0.060823 0.145068 -0.303770 -0.941636 139 111 85 255 1
-0.533793 -0.001108 -0.061237 0.104563 -0.296227 -0.949377 141 113 86 255 1
-0.540145 -0.002341 -0.061093 0.059170 -0.281504 -0.957734 143 115 88 255 1
-0.546493 -0.003481 -0.060809 0.009627 -0.277874 -0.960569 143 116 89 255 1
-0.552833 -0.004436 -0.060247 -0.042409 -0.267750 -0.962555 142 115 89 255 1
-0.559173 -0.005391 -0.059684 -0.091764 -0.266673 -0.959409 141 116 89 255 1
-0.565507 -0.006161 -0.058843 -0.137872 -0.266904 -0.953810 140 116 90 255 1
-0.571835 -0.006655 -0.057582 -0.177716 -0.266706 -0.947251 140 115 89 255 1
-0.578156 -0.006781 -0.055763 -0.223623 -0.272398 -0.935838 142 116 90 255 1
-0.584479 -0.006815 -0.053804 -0.268474 -0.282261 -0.921005 143 116 91 255 1
-0.590808 -0.006941 -0.051985 -0.298390 -0.289654 -0.909431 144 117 91 255 1
-0.597135 -0.006701 -0.049606 -0.335903 -0.293845 -0.894888 143 116 89 255 1
-0.603465 -0.006276 -0.046947 -0.377965 -0.305653 -0.873910 142 116 90 255 1
-0.609804 -0.005945 -0.044427 -0.420078 -0.318125 -0.849900 139 114 87 255 1
-0.616144 -0.005155 -0.041209 -0.460491 -0.328333 -0.824709 136 109 83 255 1
-0.622493 -0.004367 -0.037989 -0.505173 -0.336532 -0.794699 132 104 78 255 1
-0.628848 -0.003028 -0.033930 -0.554252 -0.334490 -0.762181 125 96 70 255 1
-0.635215 -0.001599 -0.029730 -0.606785 -0.324818 -0.725469 119 88 63 255 1
-0.641593 0.000012 -0.025250 -0.653140 -0.313690 -0.689207 114 82 58 255 1
-0.647986 0.002355 -0.019649 -0.705901 -0.308038 -0.637822 108 76 52 255 1
-0.654399 0.005155 -0.013348 -0.746817 -0.305782 -0.590561 102 71 47 255 1
-0.660837 0.008869 -0.005647 -0.820986 -0.274999 -0.500358 101 67 44 255 1
-0.667301 0.012854 0.002476 -0.871247 -0.218240 -0.439659 96 65 44 255 1
-0.673872 0.023253 0.020395 -0.951138 -0.151732 -0.268911 100 73 52 255 1
-0.680629 0.042165 0.051333 -0.976550 -0.084918 -0.197833 86 73 55 255 1
0.606106 0.279505 0.015866 0.387982 -0.158456 -0.907944 106 82 63 255 3
0.597524 0.274089 0.010330 0.389197 -0.173909 -0.904589 114 83 61 255 3
0.589697 0.270344 0.007107 0.342521 -0.255562 -0.904084 117 86 62 255 3
0.582182 0.267288 0.004835 0.342041 -0.271380 -0.899645 117 86 62 255 3
0.574891 0.264723 0.003243 0.292722 -0.344597 -0.891946 121 91 66 255 3
0.567776 0.262552 0.002195 0.245269 -0.390877 -0.887163 121 92 67 255 3
0.560710 0.260479 0.001282 0.193326 -0.440847 -0.876515 120 92 67 255 3
0.553816 0.258799 0.000914 0.135042 -0.489501 -0.861483 118 91 66 255 3
0.546884 0.257022 0.000410 0.055055 -0.542047 -0.838543 114 86 62 255 3
0.540164 0.255735 0.000586 -0.042542 -0.607688 -0.793036 114 86 62 255 3
0.533733 0.255133 0.001716 -0.130805 -0.666212 -0.734201 109 81 60 255 3
0.527342 0.254628 0.002983 -0.198313 -0.707443 -0.678378 107 80 59 255 3
0.521357 0.255101 0.005613 -0.318135 -0.768669 -0.554921 103 78 58 255 3
0.515608 0.256160 0.009062 -0.413492 -0.781625 -0.466998 95 69 51 255 3
0.510051 0.257705 0.013193 -0.512175 -0.794105 -0.327222 79 60 44 255 3
0.505405 0.261496 0.020462 -0.557544 -0.796059 -0.235445 74 59 44 255 3
0.501454 0.267040 0.030188 -0.586418 -0.788592 -0.185030 72 65 51 255 3
0.400375 0.231471 0.008090 -0.737650 0.535374 0.411398 90 70 52 255 3
0.390619 0.222029 -0.003219 -0.709813 0.525370 0.469204 98 70 50 255 3
0.381737 0.214826 -0.011387 -0.682946 0.519737 0.513283 103 70 49 255 3
0.373494 0.209277 -0.017233 -0.607385 0.514289 0.605467 103 72 52 255 3
0.365917 0.205478 -0.020619 0.542496 -0.508137 -0.668951 105 75 54 255 3
0.358637 0.202457 -0.022911 0.460675 -0.495175 -0.736601 108 78 56 255 3
0.351155 0.198856 -0.026026 0.361118 -0.469251 -0.805852 113 82 59 255 3
0.344141 0.196516 -0.027363 0.317719 -0.442196 -0.838759 114 83 60 255 3
0.337168 0.194275 -0.028563 0.208700 -0.405414 -0.889991 115 82 59 255 3
0.330202 0.192034 -0.029764 0.114620 -0.393538 -0.912135 118 84 61 255 3
0.323619 0.190859 -0.029460 0.000776 -0.364277 -0.931290 119 85 63 255 3
0.317173 0.190071 -0.028608 -0.108040 -0.330336 -0.937660 120 86 64 255 3
0.310760 0.189380 -0.027620 -0.166008 -0.288295 -0.943042 121 88 66 255 3
0.304547 0.189269 -0.025809 -0.203528 -0.225297 -0.952795 120 89 67 255 3
0.298531 0.189737 -0.023176 -0.211287 -0.169521 -0.962611 120 91 68 255 3
0.292508 0.190205 -0.020543 -0.227046 -0.097608 -0.968980 120 92 71 255 3
0.286379 0.190381 -0.018320 -0.240457 -0.030831 -0.970170 118 96 78 255 3
0.279329 0.187853 -0.019934 -0.215483 0.054409 -0.974991 112 104 89 255 3
0.273163 0.187932 -0.017847 -0.261151 0.114813 -0.958446 109 109 97 255 3
0.266766 0.187335 -0.016720 -0.311284 0.149218 -0.938529 111 111 100 255 3
0.260399 0.186834 -0.015456 -0.390685 0.184016 -0.901944 111 112 101 255 3
0.254189 0.186815 -0.013505 -0.433922 0.192170 -0.880217 110 110 99 255 3
0.248700 0.189013 -0.008401 -0.508759 0.231754 -0.829129 108 109 98 255 3
0.243352 0.191689 -0.002609 -0.536776 0.239487 -0.809023 106 107 96 255 3
0.238018 0.194460 0.003322 -0.544236 0.271436 -0.793807 102 102 92 255 3
0.233838 0.200886 0.014468 -0.568486 0.220654 -0.792550 102 102 91 255 3
0.174695 0.171267 -0.011911 0.069804 0.641775 -0.763709 112 93 73 255 4
0.164578 0.158288 -0.028505 0.016339 0.567077 -0.823503 119 93 69 255 4
0.157658 0.155871 -0.029990 -0.018188 0.568159 -0.822718 126 95 70 255 4
0.151000 0.154318 -0.030239 -0.044577 0.568048 -0.821787 129 94 68 255 4
0.144344 0.152766 -0.030488 -0.103602 0.548977 -0.829392 128 91 64 255 4
0.137886 0.151885 -0.029775 -0.141900 0.552414 -0.821403 127 91 64 255 4
0.131565 0.151483 -0.028375 -0.183406 0.538286 -0.822563 128 95 67 255 4
0.125379 0.151559 -0.026287 -0.193723 0.548316 -0.813524 130 97 70 255 4
0.119160 0.151538 -0.024336 -0.198997 0.553226 -0.808913 126 97 70 255 4
0.113017 0.151804 -0.021972 -0.197889 0.551554 -0.810326 121 95 69 255 4
0.106895 0.152165 -0.019469 -0.187513 0.556755 -0.809236 116 93 68 255 4
0.100820 0.152716 -0.016691 -0.175987 0.556304 -0.812130 112 91 67 255 4
0.094711 0.153171 -0.014050 -0.161808 0.560535 -0.812169 110 91 67 255 4
0.088491 0.153242 -0.011959 -0.140998 0.558781 -0.817241 108 90 67 255 4
0.081957 0.152166 -0.011520 -0.120004 0.553386 -0.824234 107 90 68 255 4
0.074836 0.148894 -0.014246 -0.102160 0.554576 -0.825838 110 93 70 255 4
0.067726 0.145624 -0.016974 -0.061019 0.544170 -0.836753 111 95 71 255 4
0.060602 0.142259 -0.019840 -0.029384 0.543524 -0.838879 114 96 72 255 4
0.053540 0.139088 -0.022432 0.001018 0.526555 -0.850141 120 100 74 255 4
0.046488 0.135918 -0.025025 0.017556 0.513971 -0.857628 124 100 74 255 4
0.039520 0.133036 -0.027206 0.045149 0.475192 -0.878723 126 98 72 255 4
0.032441 0.129678 -0.030076 0.044145 0.447832 -0.893027 128 99 73 255 4
0.025349 0.126227 -0.033085 0.078758 0.412074 -0.907740 130 101 76 255 4
0.018388 0.123254 -0.035406 0.086845 0.363744 -0.927442 130 101 76 255 4
0.011718 0.121425 -0.036074 0.112684 0.335805 -0.935167 132 102 77 255 4
0.004889 0.118930 -0.037707 0.118295 0.267884 -0.956161 132 102 77 255 4
-0.002001 0.116151 -0.039755 0.126114 0.208821 -0.969788 130 101 76 255 4
-0.008928 0.113183 -0.042079 0.132958 0.160961 -0.977964 130 101 75 255 4
-0.015507 0.111642 -0.042335 0.167278 0.138545 -0.976127 129 101 76 255 4
-0.022106 0.110007 -0.042729 0.188853 0.107277 -0.976128 129 102 77 255 4
-0.029054 0.106852 -0.045331 0.199154 0.083478 -0.976406 130 102 77 255 4
-0.036014 0.103605 -0.048072 0.205852 0.058975 -0.976805 131 103 77 255 4
-0.042876 0.100738 -0.050262 0.215329 0.050126 -0.975254 132 104 78 255 4
-0.049558 0.098632 -0.051348 0.206613 0.038597 -0.977661 133 106 80 255 4
-0.056255 0.096432 -0.052573 0.188674 0.045614 -0.980980 134 107 81 255 4
-0.063114 0.093474 -0.054903 0.169163 0.049342 -0.984352 133 108 81 255 4
-0.069880 0.090897 -0.056682 0.153009 0.048276 -0.987045 134 108 82 255 4
-0.076434 0.089268 -0.057080 0.133814 0.056504 -0.989394 134 110 83 255 4
-0.082985 0.087640 -0.057479 0.114662 0.053643 -0.991955 134 109 83 255 4
-0.089533 0.086012 -0.057877 0.091965 0.049517 -0.994530 135 110 84 255 4
-0.096117 0.084196 -0.058553 0.071598 0.044166 -0.996455 134 110 84 255 4
-0.102677 0.082475 -0.059090 0.060534 0.038772 -0.997413 135 111 84 255 4
-0.109214 0.080848 -0.059490 0.045653 0.034664 -0.998356 134 110 84 255 4
-0.115710 0.079412 -0.059613 0.028715 0.028108 -0.999192 134 110 83 255 4
-0.122204 0.077975 -0.059737 0.014105 0.018281 -0.999733 134 110 83 255 4
-0.128676 0.076634 -0.059722 -0.007498 0.007830 -0.999941 135 111 84 255 4
-0.135147 0.075293 -0.059708 -0.036174 0.000537 -0.999345 137 111 85 255 4
-0.141616 0.073952 -0.059694 -0.071562 -0.007969 -0.997404 137 112 85 255 4
-0.148030 0.072894 -0.059265 -0.114963 -0.013621 -0.993276 139 113 86 255 4
-0.154337 0.072402 -0.058005 -0.163337 -0.017328 -0.986418 139 111 85 255 4
-0.160664 0.071816 -0.056884 -0.203252 -0.018405 -0.978953 138 111 85 255 4
-0.166958 0.071417 -0.055486 -0.248346 -0.018394 -0.968497 139 112 85 255 4
-0.173205 0.071301 -0.053673 -0.279499 -0.013805 -0.960047 138 112 85 255 4
-0.179455 0.071184 -0.051859 -0.303630 -0.005938 -0.952771 136 111 85 255 4
-0.185644 0.071443 -0.049491 -0.324211 0.001249 -0.945984 136 110 84 255 4
-0.191855 0.071608 -0.047261 -0.340670 0.009193 -0.940138 137 111 84 255 4
-0.198071 0.071771 -0.045030 -0.353432 0.016512 -0.935314 137 110 83 255 4
-0.204293 0.071933 -0.042799 -0.368441 0.022347 -0.929383 135 108 82 255 4
-0.210474 0.072377 -0.040151 -0.386355 0.028151 -0.921921 133 107 81 255 4
-0.216677 0.072725 -0.037642 -0.401180 0.032958 -0.915406 132 106 81 255 4
-0.222857 0.073261 -0.034855 -0.416135 0.042340 -0.908316 131 105 80 255 4
-0.229029 0.073889 -0.031928 -0.425129 0.048492 -0.903833 131 105 79 255 4
-0.235180 0.074704 -0.028724 -0.437223 0.065523 -0.896963 129 103 78 255 4
-0.241339 0.075517 -0.025519 -0.444849 0.074605 -0.892493 129 103 78 255 4
-0.247550 0.076048 -0.022729 -0.460621 0.081816 -0.883818 129 102 77 255 4
-0.253740 0.076765 -0.019661 -0.484158 0.085567 -0.870787 128 101 75 255 4
-0.259884 0.077855 -0.016037 -0.514430 0.086382 -0.853170 128 100 75 255 4
-0.266052 0.078851 -0.012551 -0.563336 0.091921 -0.821099 125 99 74 255 4
-0.272070 0.080968 -0.007400 -0.604682 0.093566 -0.790952 125 98 74 255 4
-0.278129 0.082896 -0.002524 -0.661927 0.110160 -0.741429 125 98 74 255 4
-0.284140 0.085290 0.003047 -0.721403 0.129981 -0.680208 124 97 73 255 4
-0.289840 0.090113 0.012228 -0.772866 0.149584 -0.616687 121 94 70 255 4
-0.295397 0.096241 0.023356 -0.797245 0.168357 -0.579704 121 93 68 255 4
-0.300868 0.103298 0.035876 -0.806487 0.202776 -0.555392 121 91 66 255 4
-0.306533 0.109134 0.046594 -0.760359 0.235563 -0.605281 125 95 69 255 4
-0.311836 0.118140 0.062037 -0.728363 0.293670 -0.619068 113 91 68 255 4
-0.350409 0.309997 0.367298 -0.442643 0.755218 -0.483440 102 87 66 255 1
-0.380955 0.074280 0.017093 -0.725249 -0.282806 0.627721 128 99 72 255 1
-0.388296 0.064561 0.004591 -0.704574 -0.266190 0.657813 123 95 68 255 1
-0.395416 0.056707 -0.005133 0.661378 0.241471 -0.710120 126 98 71 255 1
-0.402373 0.050252 -0.012772 0.630148 0.214855 -0.746157 131 104 77 255 1
-0.409277 0.044080 -0.019996 0.605261 0.176350 -0.776248 135 107 80 255 1
-0.416172 0.037726 -0.027500 0.586684 0.122389 -0.800514 135 105 79 255 1
-0.423000 0.031841 -0.034311 0.560714 0.066260 -0.825354 137 104 79 255 1
-0.429712 0.027073 -0.039453 0.521416 -0.000181 -0.853303 138 106 81 255 1
-0.436359 0.022864 -0.043761 0.469780 -0.061307 -0.880652 138 105 80 255 1
-0.442955 0.019121 -0.047374 0.397065 -0.111953 -0.910937 139 107 82 255 1
-0.449480 0.016122 -0.049874 0.310975 -0.150774 -0.938383 137 108 82 255 1
-0.455921 0.014144 -0.050841 0.218680 -0.190186 -0.957083 134 107 81 255 1
-0.462331 0.012537 -0.051252 0.148655 -0.229254 -0.961948 132 107 81 255 1
-0.468719 0.011208 -0.051245 0.118702 -0.232618 -0.965297 128 104 80 255 1
-0.475111 0.009787 -0.051378 0.106182 -0.273316 -0.956046 125 101 78 255 1
-0.481471 0.008829 -0.050814 0.143592 -0.298578 -0.943521 117 92 70 255 1
-0.487820 0.008056 -0.049971 0.186731 -0.298530 -0.935955 102 77 59 255 1
-0.494332 0.004509 -0.053311 0.221474 -0.340266 -0.913876 112 87 65 255 1
-0.500763 0.002166 -0.054840 0.255003 -0.356497 -0.898824 124 96 73 255 1
-0.507148 0.000563 -0.055253 0.260430 -0.373562 -0.890296 129 100 77 255 1
-0.513549 -0.001409 -0.056224 0.235880 -0.389881 -0.890142 133 104 79 255 1
-0.519954 -0.003566 -0.057475 0.204586 -0.398645 -0.893995 135 106 82 255 1
-0.526335 -0.005352 -0.058168 0.179805 -0.397322 -0.899892 138 109 84 255 1
-0.532705 -0.006952 -0.058583 0.142291 -0.388000 -0.910609 141 113 86 255 1
-0.539067 -0.008461 -0.058858 0.090977 -0.375887 -0.922189 145 117 91 255 1
-0.545420 -0.009784 -0.058854 0.039521 -0.361827 -0.931407 144 118 91 255 1
-0.551764 -0.010923 -0.058571 -0.014522 -0.350645 -0.936396 142 116 90 255 1
-0.558095 -0.011694 -0.057730 -0.066558 -0.335697 -0.939616 142 117 91 255 1
-0.564425 -0.012372 -0.056748 -0.116282 -0.328312 -0.937384 141 116 90 255 1
-0.570750 -0.012867 -0.055487 -0.168539 -0.327461 -0.929712 142 118 92 255 1
-0.577075 -0.013270 -0.054087 -0.212650 -0.331357 -0.919229 144 118 92 255 1
-0.583399 -0.013489 -0.052406 -0.257287 -0.332061 -0.907491 145 118 93 255 1
-0.589723 -0.013525 -0.050446 -0.299925 -0.338658 -0.891827 146 119 94 255 1
