ply
format ascii 1.0
comment Created by labeled_geometry.py
element vertex 640
property float x
property float y
property float z
property float nx
property float ny
property float nz
property uchar red
property uchar green
property uchar blue
property uchar alpha
property uchar label
end_header
-0.267719 0.283382 -0.069586 -0.081861 -0.360528 -0.929149 121 91 67 255 3
-0.266498 0.279474 -0.068000 -0.121871 -0.373781 -0.919475 121 91 68 255 3
-0.265342 0.275538 -0.066553 -0.155183 -0.385862 -0.909411 119 90 67 255 3
-0.264120 0.271621 -0.064967 -0.182412 -0.399563 -0.898374 119 90 67 255 3
-0.262898 0.267698 -0.063381 -0.208620 -0.411975 -0.886992 120 91 67 255 3
-0.261674 0.263770 -0.061795 -0.233258 -0.421498 -0.876316 122 92 69 255 3
-0.260451 0.259837 -0.060209 -0.243173 -0.432005 -0.868469 122 92 68 255 3
-0.259226 0.255899 -0.058623 -0.264042 -0.434086 -0.861308 121 90 67 255 3
-0.258068 0.251934 -0.057177 -0.271306 -0.438641 -0.856731 121 90 67 255 3
-0.256843 0.247985 -0.055591 -0.290115 -0.439618 -0.850041 120 90 66 255 3
-0.255617 0.244032 -0.054006 -0.299703 -0.436936 -0.848095 120 89 66 255 3
-0.254457 0.240052 -0.052560 -0.317208 -0.436728 -0.841812 119 88 65 255 3
-0.253296 0.236068 -0.051115 -0.333257 -0.435336 -0.836315 119 88 65 255 3
-0.252135 0.232079 -0.049669 -0.346389 -0.435764 -0.830737 119 88 65 255 3
-0.250907 0.228106 -0.048084 -0.356913 -0.438854 -0.824634 119 88 65 255 3
-0.249613 0.224148 -0.046359 -0.367016 -0.442553 -0.818197 117 86 64 255 3
-0.248317 0.220184 -0.044635 -0.378565 -0.444288 -0.811971 116 85 63 255 3
-0.247088 0.216195 -0.043050 -0.391032 -0.445273 -0.805497 116 85 63 255 3
-0.245791 0.212220 -0.041325 -0.404082 -0.445327 -0.799000 116 85 63 255 3
-0.244561 0.208221 -0.039741 -0.414235 -0.447057 -0.792811 114 84 62 255 3
-0.243263 0.204235 -0.038016 -0.419928 -0.449898 -0.788195 114 83 62 255 3
-0.242032 0.200225 -0.036432 -0.424769 -0.452470 -0.784119 114 83 62 255 3
-0.240800 0.196210 -0.034848 -0.429434 -0.454425 -0.780438 113 82 62 255 3
-0.239567 0.192190 -0.033264 -0.433546 -0.457610 -0.776293 112 82 61 255 3
-0.238400 0.188146 -0.031820 -0.431605 -0.472974 -0.768123 112 82 61 255 3
-0.237167 0.184116 -0.030236 -0.424277 -0.496635 -0.757194 112 81 60 255 3
-0.235866 0.180098 -0.028512 -0.415960 -0.518884 -0.746818 112 81 60 255 3
-0.234298 0.176146 -0.026229 -0.405205 -0.541775 -0.736402 113 82 60 255 3
-0.232729 0.172187 -0.023946 -0.399163 -0.555153 -0.729708 112 82 60 255 3
-0.231160 0.168220 -0.021664 -0.409412 -0.547040 -0.730157 113 82 59 255 3
-0.229590 0.164246 -0.019381 -0.428166 -0.525173 -0.735436 114 83 60 255 3
-0.228286 0.160197 -0.017658 -0.447490 -0.503314 -0.739208 114 83 60 255 3
-0.226914 0.156160 -0.015795 -0.462287 -0.484937 -0.742379 112 82 58 255 3
-0.225542 0.152116 -0.013933 -0.467549 -0.477607 -0.743834 113 82 59 255 3
-0.224170 0.148066 -0.012070 -0.466808 -0.480936 -0.742153 112 81 58 255 3
-0.222863 0.143995 -0.010348 -0.461646 -0.487284 -0.741240 112 82 59 255 3
-0.221490 0.139934 -0.008486 -0.453856 -0.495648 -0.740505 112 82 59 255 3
-0.219982 0.135897 -0.006344 -0.447902 -0.502339 -0.739621 113 82 59 255 3
-0.218540 0.131839 -0.004342 -0.446716 -0.504450 -0.738902 113 82 59 255 3
-0.217030 0.127789 -0.002201 -0.448571 -0.500870 -0.740211 112 82 58 255 3
-0.215587 0.123718 -0.000200 -0.447538 -0.492094 -0.746695 111 81 58 255 3
-0.214143 0.119640 0.001802 -0.445887 -0.478935 -0.756179 109 80 58 255 3
-0.212966 0.115498 0.003243 -0.435197 -0.466513 -0.770045 108 80 58 255 3
-0.211856 0.111336 0.004545 -0.440093 -0.470338 -0.764919 106 78 56 255 3
-0.210612 0.107199 0.006127 -0.603779 -0.302933 -0.737348 99 71 51 255 3
-0.209433 0.103043 0.007568 -0.737565 0.005748 -0.675251 95 65 44 255 3
-0.208255 0.098881 0.009010 -0.794644 0.175284 -0.581220 90 66 47 255 3
-0.212375 0.093652 -0.000593 -0.757512 0.273924 -0.592572 103 89 75 255 3
-0.212942 0.089154 -0.002786 -0.712907 0.261505 -0.650676 107 104 94 255 3
-0.211295 0.085092 -0.000365 -0.693697 0.193228 -0.693864 106 105 93 255 3
-0.211728 0.080626 -0.002279 -0.592315 -0.014596 -0.805574 100 99 87 255 4
-0.211423 0.076303 -0.002654 -0.588336 -0.002688 -0.808612 98 98 86 255 4
-0.211118 0.071982 -0.003030 -0.593483 -0.004317 -0.804835 96 96 85 255 4
-0.210410 0.067734 -0.002567 -0.638227 0.055215 -0.767865 97 96 85 255 4
-0.209096 0.063592 -0.000846 -0.656401 0.067597 -0.751377 97 96 85 255 4
-0.208724 0.059280 -0.001082 -0.689809 0.054934 -0.721904 99 98 86 255 4
-0.209831 0.054715 -0.004392 -0.762461 0.111847 -0.637294 100 98 87 255 4
-0.210402 0.050250 -0.006584 -0.811549 0.159227 -0.562170 100 98 87 255 4
-0.209694 0.046003 -0.006121 -0.832200 0.161373 -0.530473 100 98 87 255 4
-0.209255 0.041711 -0.006217 -0.838620 0.168946 -0.517855 99 98 86 255 4
-0.210971 0.037076 -0.010785 -0.831336 0.194481 -0.520632 99 98 86 255 4
-0.210668 0.032770 -0.011160 -0.835784 0.243601 -0.492061 98 96 85 255 4
-0.210365 0.028464 -0.011535 -0.822801 0.292462 -0.487303 96 94 83 255 4
-0.211208 0.023988 -0.014286 -0.801885 0.280687 -0.527442 97 95 84 255 4
-0.212321 0.019481 -0.017595 -0.789267 0.179457 -0.587242 95 93 82 255 4
-0.213369 0.014994 -0.020764 -0.768206 0.053516 -0.637962 95 93 83 255 4
-0.213269 0.010676 -0.021558 -0.750170 -0.132732 -0.647787 97 95 84 255 4
-0.211617 0.006571 -0.019139 -0.761428 -0.223262 -0.608590 98 96 85 255 4
-0.209897 0.002467 -0.016580 -0.745231 -0.345671 -0.570213 99 97 86 255 4
-0.208108 -0.001635 -0.013882 -0.745336 -0.396676 -0.535838 97 95 84 255 4
-0.206927 -0.005824 -0.012441 -0.775337 -0.371125 -0.510998 96 95 84 255 4
-0.206353 -0.010092 -0.012257 -0.785474 -0.335681 -0.519951 98 97 85 255 4
-0.205848 -0.014369 -0.012214 -0.787991 -0.295999 -0.539865 100 100 88 255 4
-0.204530 -0.018551 -0.010494 -0.793550 -0.284823 -0.537730 97 96 85 255 4
-0.202873 -0.022701 -0.008075 -0.793089 -0.286175 -0.537693 96 95 84 255 4
-0.203111 -0.027068 -0.009568 -0.788912 -0.260577 -0.556523 97 96 85 255 4
-0.201521 -0.031234 -0.007290 -0.743650 -0.234102 -0.626243 99 98 87 255 4
-0.199931 -0.035408 -0.005012 -0.692246 -0.187507 -0.696876 100 99 88 255 4
-0.198475 -0.039602 -0.003013 -0.651541 -0.137371 -0.746072 101 100 89 255 4
-0.198984 -0.043995 -0.005064 -0.619893 -0.161858 -0.767812 104 103 92 255 4
-0.199155 -0.048350 -0.006417 -0.616930 -0.154995 -0.771605 104 103 92 255 4
-0.198580 -0.052633 -0.006234 -0.564536 -0.129170 -0.815238 105 104 93 255 4
-0.197937 -0.056911 -0.005911 -0.545909 -0.111668 -0.830370 107 107 96 255 4
-0.197294 -0.061190 -0.005588 -0.565524 -0.112697 -0.816996 108 107 97 255 4
-0.194818 -0.065320 -0.001495 -0.615845 -0.222079 -0.755920 109 109 98 255 4
-0.195668 -0.069725 -0.004244 -0.632590 -0.301739 -0.713291 109 110 99 255 4
-0.195840 -0.074071 -0.005597 -0.629659 -0.387604 -0.673271 113 111 99 255 3
-0.195944 -0.078407 -0.006810 -0.648494 -0.350887 -0.675524 103 87 74 255 3
-0.189523 -0.082290 0.005379 -0.635125 -0.367405 -0.679433 89 62 46 255 3
-0.189830 -0.086654 0.003747 -0.606264 -0.169250 -0.777045 86 55 37 255 3
-0.190137 -0.091013 0.002115 -0.505505 0.062296 -0.860572 96 61 42 255 3
-0.190445 -0.095368 0.000483 -0.371856 0.279572 -0.885191 107 73 51 255 3
-0.190889 -0.099725 -0.001427 -0.297888 0.356402 -0.885574 111 80 59 255 3
-0.191266 -0.104073 -0.003198 -0.303019 0.371304 -0.877675 113 82 60 255 3
-0.191712 -0.108420 -0.005109 -0.311625 0.378111 -0.871735 111 80 59 255 3
-0.192021 -0.112754 -0.006740 -0.321254 0.382037 -0.866513 111 80 59 255 3
-0.192263 -0.117081 -0.008232 -0.314302 0.378720 -0.870509 111 80 59 255 3
-0.192574 -0.121407 -0.009863 -0.318135 0.379025 -0.868982 111 80 58 255 3
-0.192885 -0.125727 -0.011494 -0.318430 0.379420 -0.868702 110 80 58 255 3
-0.193197 -0.130043 -0.013125 -0.311612 0.382547 -0.869802 111 80 59 255 3
-0.193509 -0.134355 -0.014756 -0.312132 0.380368 -0.870571 110 79 59 255 3
-0.193890 -0.138663 -0.016526 -0.313324 0.380566 -0.870056 110 79 59 255 3
-0.194203 -0.142965 -0.018157 -0.312403 0.381341 -0.870048 111 80 60 255 3
-0.194517 -0.147262 -0.019787 -0.305625 0.391568 -0.867910 112 79 59 255 3
-0.194831 -0.151554 -0.021417 -0.294315 0.410277 -0.863164 112 79 59 255 3
-0.195214 -0.155843 -0.023187 -0.280571 0.435000 -0.855602 112 79 59 255 3
-0.195871 -0.160130 -0.025515 -0.268561 0.457677 -0.847589 112 79 59 255 3
-0.196529 -0.164410 -0.027842 -0.266219 0.458392 -0.847941 111 80 60 255 3
-0.197187 -0.168683 -0.030170 -0.261278 0.446307 -0.855888 109 80 60 255 3
-0.197846 -0.172949 -0.032497 -0.262290 0.419337 -0.869115 110 82 62 255 3
-0.198164 -0.177209 -0.034127 -0.261500 0.393541 -0.881330 110 81 61 255 3
-0.198482 -0.181464 -0.035756 -0.269508 0.376027 -0.886549 111 82 62 255 3
-0.198800 -0.185714 -0.037386 -0.267627 0.363468 -0.892338 112 82 61 255 3
-0.199051 -0.189960 -0.038876 -0.261504 0.355866 -0.897204 113 82 62 255 3
-0.199370 -0.194201 -0.040505 -0.257360 0.349007 -0.901088 113 83 63 255 3
-0.199690 -0.198437 -0.042134 -0.244848 0.336418 -0.909325 113 82 62 255 3
-0.199942 -0.202670 -0.043623 -0.230792 0.322396 -0.918039 113 83 63 255 3
-0.200194 -0.206899 -0.045113 -0.213882 0.310017 -0.926361 112 83 62 255 3
-0.200378 -0.211125 -0.046463 -0.195662 0.301794 -0.933079 112 83 63 255 3
-0.200631 -0.215345 -0.047952 -0.174503 0.297092 -0.938768 113 84 63 255 3
-0.200678 -0.219567 -0.049023 -0.149198 0.288721 -0.945717 114 84 63 255 3
-0.200726 -0.223787 -0.050094 -0.127421 0.282122 -0.950879 115 85 64 255 3
-0.200774 -0.228003 -0.051164 -0.106371 0.274833 -0.955590 114 85 64 255 3
-0.200823 -0.232216 -0.052235 -0.083593 0.266540 -0.960192 115 85 64 255 3
-0.200871 -0.236427 -0.053306 -0.058341 0.257365 -0.964551 116 85 65 255 3
-0.200920 -0.240634 -0.054376 -0.018957 0.242625 -0.969935 116 84 64 255 3
-0.200901 -0.244842 -0.055307 0.016613 0.225738 -0.974046 116 83 63 255 3
-0.200881 -0.249047 -0.056238 0.055013 0.214189 -0.975242 116 83 63 255 3
-0.200862 -0.253250 -0.057169 0.083769 0.201397 -0.975921 115 82 62 255 3
-0.200844 -0.257450 -0.058100 0.122315 0.182088 -0.975645 114 82 62 255 3
-0.200825 -0.261648 -0.059031 0.159711 0.160195 -0.974079 112 80 61 255 3
-0.200807 -0.265843 -0.059961 0.196125 0.137981 -0.970822 112 80 61 255 3
-0.200513 -0.270054 -0.060334 0.226454 0.117622 -0.966894 111 79 59 255 3
-0.200082 -0.274275 -0.060429 0.262418 0.093379 -0.960426 109 77 58 255 3
-0.199581 -0.278500 -0.060384 0.296195 0.067847 -0.952715 107 75 56 255 3
-0.199081 -0.282726 -0.060339 0.351823 0.026275 -0.935698 106 73 55 255 3
-0.198511 -0.286958 -0.060154 0.383703 -0.011377 -0.923387 109 73 55 255 3
-0.198010 -0.291185 -0.060109 0.426642 -0.054464 -0.902779 110 73 55 255 3
-0.196819 -0.295472 -0.058671 0.456853 -0.081957 -0.885759 111 74 54 255 3
-0.195281 -0.299795 -0.056535 0.519080 -0.133431 -0.844247 108 73 52 255 3
-0.193812 -0.304119 -0.054539 0.537938 -0.167175 -0.826242 107 73 52 255 3
-0.192135 -0.308468 -0.052126 0.554616 -0.186011 -0.811049 104 77 57 255 3
-0.188244 -0.313045 -0.045253 0.570286 -0.195997 -0.797721 90 80 63 255 3
-0.282498 0.361160 -0.072329 0.429521 0.462928 -0.775377 97 73 57 255 3
-0.284167 0.356109 -0.076910 0.429129 0.397990 -0.810834 100 66 51 255 3
-0.285640 0.351153 -0.081070 0.382886 0.298238 -0.874330 103 67 50 255 3
-0.285542 0.346855 -0.081864 0.390326 0.270529 -0.880034 106 69 52 255 3
-0.285313 0.342612 -0.082378 0.399330 0.203483 -0.893941 106 70 52 255 3
-0.285084 0.338371 -0.082891 0.389235 0.131636 -0.911684 107 71 53 255 3
-0.284856 0.334131 -0.083405 0.387509 0.068135 -0.919345 110 75 56 255 3
-0.284430 0.329971 -0.083498 0.375200 -0.006029 -0.926924 112 76 56 255 3
-0.283808 0.325888 -0.083170 0.359133 -0.073146 -0.930416 115 80 59 255 3
-0.283185 0.321804 -0.082843 0.325166 -0.129950 -0.936686 117 81 59 255 3
-0.281840 0.317998 -0.080973 0.303394 -0.183219 -0.935085 119 84 62 255 3
-0.281020 0.313984 -0.080225 0.254879 -0.224965 -0.940440 120 87 64 255 3
-0.280068 0.310018 -0.079197 0.199003 -0.265288 -0.943409 121 88 66 255 3
-0.278919 0.306123 -0.077748 0.135104 -0.309199 -0.941352 121 88 65 255 3
-0.277769 0.302223 -0.076299 0.088960 -0.319592 -0.943370 122 90 67 255 3
-0.276750 0.298270 -0.075131 0.033564 -0.350022 -0.936140 122 90 67 255 3
-0.275533 0.294385 -0.073542 -0.018797 -0.370432 -0.928669 122 91 68 255 3
-0.274316 0.290495 -0.071954 -0.072283 -0.385063 -0.920055 122 91 68 255 3
-0.272967 0.286647 -0.070085 -0.116166 -0.402510 -0.908015 122 92 68 255 3
-0.271682 0.282770 -0.068357 -0.157998 -0.412466 -0.897167 120 91 67 255 3
-0.270529 0.278841 -0.066909 -0.196439 -0.425644 -0.883311 120 90 67 255 3
-0.269310 0.274930 -0.065321 -0.219648 -0.424892 -0.878192 120 91 68 255 3
-0.268090 0.271014 -0.063733 -0.245832 -0.439001 -0.864202 119 91 67 255 3
-0.266870 0.267093 -0.062145 -0.267877 -0.449212 -0.852321 119 90 67 255 3
-0.265649 0.263167 -0.060557 -0.278444 -0.451317 -0.847810 121 92 69 255 3
-0.264427 0.259235 -0.058970 -0.297340 -0.456285 -0.838685 120 91 68 255 3
-0.263205 0.255299 -0.057382 -0.305381 -0.457005 -0.835397 120 91 68 255 3
-0.262049 0.251335 -0.055935 -0.324416 -0.460372 -0.826325 119 89 67 255 3
-0.260760 0.247410 -0.054208 -0.335587 -0.458267 -0.823027 118 89 66 255 3
-0.259470 0.243480 -0.052480 -0.350197 -0.457334 -0.817440 117 88 64 255 3
-0.258180 0.239544 -0.050753 -0.367088 -0.456061 -0.810712 117 87 64 255 3
-0.256889 0.235602 -0.049026 -0.382518 -0.452449 -0.805587 117 87 64 255 3
-0.255598 0.231655 -0.047299 -0.396000 -0.451559 -0.799549 116 86 63 255 3
-0.254306 0.227702 -0.045573 -0.407879 -0.453255 -0.792588 116 85 63 255 3
-0.253079 0.223723 -0.043986 -0.417975 -0.456784 -0.785267 115 85 63 255 3
-0.251786 0.219760 -0.042260 -0.429004 -0.459206 -0.777873 114 84 62 255 3
-0.250493 0.215790 -0.040533 -0.440480 -0.460265 -0.770801 113 83 61 255 3
-0.249199 0.211816 -0.038807 -0.453487 -0.460031 -0.763362 113 83 61 255 3
-0.247970 0.207816 -0.037221 -0.466599 -0.459060 -0.756009 111 81 60 255 3
-0.246675 0.203830 -0.035495 -0.476224 -0.459849 -0.749500 112 82 61 255 3
-0.245445 0.199820 -0.033909 -0.481542 -0.460998 -0.745384 111 81 60 255 3
-0.244215 0.195804 -0.032323 -0.478882 -0.460847 -0.747189 110 79 59 255 3
-0.242985 0.191784 -0.030738 -0.483617 -0.462820 -0.742908 110 80 59 255 3
-0.241754 0.187758 -0.029152 -0.483584 -0.474528 -0.735506 110 80 59 255 3
-0.240522 0.183727 -0.027567 -0.477723 -0.496031 -0.725075 109 79 58 255 3
-0.239157 0.179727 -0.025702 -0.472914 -0.521417 -0.710265 110 80 59 255 3
-0.237525 0.175792 -0.023276 -0.462714 -0.544655 -0.699461 110 80 59 255 3
-0.236026 0.171814 -0.021131 -0.458456 -0.557768 -0.691891 110 80 58 255 3
-0.234459 0.167847 -0.018847 -0.458329 -0.554536 -0.694568 111 81 58 255 3
-0.232959 0.163855 -0.016702 -0.481750 -0.536695 -0.692730 111 80 58 255 3
-0.231524 0.159840 -0.014697 -0.492544 -0.513979 -0.702300 112 81 58 255 3
-0.230288 0.155768 -0.013113 -0.510190 -0.492308 -0.705223 111 79 56 255 3
-0.229052 0.151691 -0.011528 -0.520985 -0.480997 -0.705136 112 80 57 255 3
-0.227815 0.147609 -0.009944 -0.514663 -0.484122 -0.707635 112 80 57 255 3
-0.226511 0.143537 -0.008220 -0.513674 -0.487109 -0.706303 112 80 57 255 3
-0.225073 0.139492 -0.006216 -0.510379 -0.493362 -0.704349 112 79 56 255 3
-0.223567 0.135456 -0.004072 -0.512809 -0.500366 -0.697611 112 79 55 255 3
-0.222128 0.131398 -0.002069 -0.511013 -0.504644 -0.695845 112 79 56 255 3
-0.220621 0.127348 0.000075 -0.515516 -0.498094 -0.697242 110 79 56 255 3
-0.219181 0.123277 0.002078 -0.522450 -0.486490 -0.700266 109 79 56 255 3
-0.217739 0.119199 0.004081 -0.528772 -0.473045 -0.704719 108 78 56 255 3
-0.216298 0.115115 0.006084 -0.532161 -0.463311 -0.708624 106 78 56 255 3
-0.215055 0.110982 0.007667 -0.523501 -0.453424 -0.721355 105 77 55 255 3
-0.214013 0.106801 0.008830 -0.553247 -0.390169 -0.735993 101 72 51 255 3
-0.212503 0.102714 0.010973 -0.727054 -0.184774 -0.661250 95 66 46 255 3
-0.211326 0.098551 0.012416 -0.808285 0.089764 -0.581909 88 61 40 255 3
-0.210550 0.094303 0.013019 -0.826700 0.238738 -0.509481 90 70 55 255 3
-0.215463 0.088928 0.001729 -0.749997 0.311568 -0.583463 104 96 83 255 3
-0.215760 0.084486 0.000094 -0.718205 0.190119 -0.669356 106 104 94 255 4
-0.214115 0.080420 0.002516 -0.674889 0.109861 -0.729695 99 98 87 255 4
-0.215015 0.075867 -0.000378 -0.598054 -0.014723 -0.801320 98 97 85 255 4
-0.214710 0.071546 -0.000754 -0.585621 -0.011896 -0.810498 96 94 84 255 4
-0.214405 0.067226 -0.001130 -0.590262 0.009046 -0.807161 95 94 84 255 4
-0.213161 0.063074 0.000453 -0.612176 0.041589 -0.789627 95 94 83 255 4
-0.211782 0.058940 0.002315 -0.651270 0.052117 -0.757054 96 94 84 255 4
-0.212148 0.054500 0.000541 -0.684970 0.015164 -0.728413 96 95 84 255 4
-0.213185 0.049953 -0.002633 -0.777393 0.083624 -0.623431 93 92 81 255 4
-0.212813 0.045648 -0.002868 -0.820203 0.135638 -0.555760 94 93 82 255 4
-0.212105 0.041398 -0.002405 -0.830637 0.161674 -0.532826 96 95 84 255 4
-0.212069 0.037040 -0.003340 -0.841501 0.166184 -0.514062 99 98 86 255 4
-0.213781 0.032412 -0.007911 -0.844030 0.218752 -0.489654 97 96 84 255 4
-0.213545 0.028095 -0.008427 -0.846262 0.288185 -0.448096 95 93 82 255 4
-0.213510 0.023749 -0.009362 -0.853554 0.286210 -0.435349 96 95 83 255 4
-0.214552 0.019249 -0.012534 -0.842465 0.181057 -0.507416 96 95 83 255 4
-0.215662 0.014749 -0.015846 -0.841871 0.025084 -0.539095 95 93 82 255 4
-0.215697 0.010408 -0.016920 -0.814424 -0.145503 -0.561731 95 93 82 255 4
-0.213913 0.006318 -0.014219 -0.813875 -0.249652 -0.524673 95 93 82 255 4
-0.212128 0.002220 -0.011518 -0.799544 -0.350514 -0.487718 97 96 84 255 4
-0.210612 -0.001922 -0.009377 -0.785978 -0.410348 -0.462443 98 97 85 255 4
-0.210106 -0.006199 -0.009333 -0.789337 -0.362885 -0.495239 96 95 83 255 4
-0.209533 -0.010468 -0.009149 -0.799773 -0.324209 -0.505224 94 93 82 255 4
-0.207813 -0.014600 -0.006589 -0.801279 -0.291270 -0.522603 93 92 81 255 4
-0.206227 -0.018756 -0.004308 -0.792120 -0.266158 -0.549278 93 92 81 255 4
-0.206463 -0.023127 -0.005802 -0.776878 -0.235491 -0.583956 92 91 81 255 4
-0.205281 -0.027336 -0.004360 -0.737102 -0.188033 -0.649095 93 92 82 255 4
-0.203694 -0.031507 -0.002080 -0.670794 -0.128310 -0.730460 96 95 84 255 4
-0.202444 -0.035720 -0.000498 -0.642584 -0.124850 -0.755975 99 98 87 255 4
-0.202950 -0.040115 -0.002551 -0.636830 -0.141274 -0.757951 102 101 90 255 4
-0.203390 -0.044498 -0.004464 -0.626747 -0.124589 -0.769198 107 105 94 255 4
-0.202748 -0.048773 -0.004141 -0.581509 -0.096393 -0.807809 106 105 94 255 4
-0.202106 -0.053050 -0.003818 -0.559004 -0.101379 -0.822944 105 104 93 255 4
-0.201531 -0.057333 -0.003634 -0.564964 -0.143896 -0.812471 104 104 93 255 4
-0.199128 -0.061463 0.000323 -0.611319 -0.167512 -0.773453 107 106 95 255 4
-0.199772 -0.065853 -0.002010 -0.641762 -0.276863 -0.715185 106 107 96 255 4
-0.199942 -0.070200 -0.003363 -0.663615 -0.365058 -0.652953 109 109 97 255 3
-0.199503 -0.074497 -0.003459 -0.673188 -0.386664 -0.630324 101 89 74 255 3
-0.193437 -0.078388 0.008042 -0.717591 -0.347919 -0.603337 88 62 46 255 3
-0.193809 -0.082759 0.006269 -0.673904 -0.255512 -0.693229 87 55 38 255 3
-0.194250 -0.087129 0.004356 -0.575942 -0.072156 -0.814300 95 62 42 255 3
-0.194624 -0.091489 0.002583 -0.505066 0.178109 -0.844503 106 71 48 255 3
-0.194862 -0.095836 0.001090 -0.397451 0.346109 -0.849848 110 76 53 255 3
-0.195033 -0.100175 -0.000263 -0.395130 0.345903 -0.851013 111 78 57 255 3
-0.195204 -0.104510 -0.001617 -0.391324 0.353921 -0.849473 111 79 57 255 3
-0.195376 -0.108841 -0.002970 -0.396452 0.361868 -0.843728 111 80 58 255 3
-0.195548 -0.113168 -0.004324 -0.400910 0.368543 -0.838718 109 79 57 255 3
-0.195992 -0.117504 -0.006236 -0.404470 0.374502 -0.834357 109 78 57 255 3
-0.196369 -0.121831 -0.008008 -0.404384 0.376908 -0.833315 109 78 56 255 3
-0.196679 -0.126150 -0.009640 -0.402058 0.378286 -0.833816 108 78 56 255 3
-0.196989 -0.130465 -0.011272 -0.400042 0.376283 -0.835690 109 77 56 255 3
-0.197231 -0.134773 -0.012765 -0.398690 0.374712 -0.837041 109 77 56 255 3
-0.197678 -0.139082 -0.014676 -0.397248 0.374191 -0.837959 109 78 57 255 3
-0.198058 -0.143384 -0.016448 -0.393243 0.380478 -0.837016 109 78 57 255 3
-0.198370 -0.147680 -0.018080 -0.382958 0.395870 -0.834644 111 78 57 255 3
-0.198682 -0.151971 -0.019712 -0.368348 0.416322 -0.831262 110 77 57 255 3
-0.199131 -0.156259 -0.021622 -0.353356 0.442243 -0.824355 110 77 56 255 3
-0.199786 -0.160544 -0.023952 -0.340876 0.461765 -0.818888 111 78 58 255 3
-0.200441 -0.164822 -0.026282 -0.333608 0.464722 -0.820207 109 77 57 255 3
-0.201165 -0.169094 -0.028751 -0.331128 0.449214 -0.829796 109 79 59 255 3
-0.201753 -0.173358 -0.030940 -0.332945 0.422878 -0.842806 108 80 59 255 3
-0.202000 -0.177616 -0.032432 -0.333640 0.396194 -0.855403 108 79 59 255 3
-0.202317 -0.181869 -0.034063 -0.332545 0.375406 -0.865150 110 81 60 255 3
-0.202633 -0.186118 -0.035694 -0.329684 0.364843 -0.870746 111 81 60 255 3
-0.203019 -0.190361 -0.037464 -0.322935 0.359974 -0.875289 114 83 62 255 3
-0.203337 -0.194600 -0.039094 -0.314068 0.351477 -0.881944 114 83 62 255 3
-0.203655 -0.198834 -0.040725 -0.301084 0.340115 -0.890882 114 83 63 255 3
-0.203836 -0.203067 -0.042076 -0.293992 0.334080 -0.895522 113 82 62 255 3
-0.204087 -0.207293 -0.043567 -0.275020 0.326397 -0.904339 113 83 62 255 3
-0.204338 -0.211516 -0.045057 -0.263855 0.320513 -0.909754 114 84 63 255 3
-0.204590 -0.215734 -0.046548 -0.240658 0.317395 -0.917248 114 84 63 255 3
-0.204842 -0.219948 -0.048038 -0.216971 0.311013 -0.925308 115 85 63 255 3
-0.205094 -0.224158 -0.049529 -0.193914 0.303988 -0.932732 114 85 63 255 3
-0.205347 -0.228364 -0.051019 -0.171241 0.297456 -0.939253 115 86 64 255 3
-0.205531 -0.232568 -0.052369 -0.146887 0.291442 -0.945244 115 86 64 255 3
-0.205579 -0.236774 -0.053441 -0.118092 0.282700 -0.951911 116 85 65 255 3
-0.205628 -0.240977 -0.054512 -0.092267 0.274289 -0.957211 116 85 65 255 3
-0.205607 -0.245181 -0.055444 -0.062710 0.261453 -0.963177 116 84 64 255 3
-0.205587 -0.249382 -0.056375 -0.020331 0.247121 -0.968771 116 84 64 255 3
-0.205568 -0.253580 -0.057307 0.017554 0.229876 -0.973062 116 83 64 255 3
-0.205617 -0.257772 -0.058378 0.059190 0.218248 -0.974097 116 82 63 255 3
-0.205598 -0.261966 -0.059309 0.090711 0.204411 -0.974673 114 81 61 255 3
-0.205648 -0.266152 -0.060380 0.130857 0.181783 -0.974593 115 82 62 255 3
-0.205630 -0.270340 -0.061312 0.168097 0.157403 -0.973123 112 80 61 255 3
-0.205542 -0.274530 -0.062103 0.207079 0.130238 -0.969617 111 79 61 255 3
-0.205249 -0.278733 -0.062477 0.228831 0.112587 -0.966934 109 77 59 255 3
-0.204749 -0.282952 -0.062431 0.270578 0.088528 -0.958619 107 75 57 255 3
-0.204250 -0.287171 -0.062386 0.313951 0.043036 -0.948463 109 74 56 255 3
-0.203681 -0.291397 -0.062201 0.365781 0.000818 -0.930701 109 72 54 255 3
-0.203043 -0.295629 -0.061877 0.401920 -0.036989 -0.914927 111 72 53 255 3
-0.202337 -0.299869 -0.061413 0.434144 -0.072285 -0.897939 109 73 52 255 3
-0.200871 -0.304182 -0.059415 0.493295 -0.120995 -0.861406 109 73 52 255 3
-0.199405 -0.308500 -0.057417 0.517074 -0.156015 -0.841602 108 73 53 255 3
-0.197939 -0.312826 -0.055420 0.544065 -0.178126 -0.819917 107 75 56 255 3
-0.194884 -0.317320 -0.050215 0.563234 -0.209258 -0.799362 100 78 60 255 3
-0.284365 0.370120 -0.064604 0.403604 0.569647 -0.715965 83 70 56 255 3
-0.288441 0.364022 -0.074383 0.359395 0.489529 -0.794479 96 64 51 255 3
-0.289451 0.359247 -0.077565 0.358078 0.423297 -0.832226 99 63 48 255 3
-0.290789 0.354344 -0.081447 0.345401 0.342357 -0.873779 102 64 49 255 3
-0.290952 0.349942 -0.082804 0.327435 0.293469 -0.898144 104 66 49 255 3
-0.291376 0.345435 -0.084721 0.323194 0.223863 -0.919473 106 68 51 255 3
-0.291148 0.341201 -0.085235 0.336101 0.181199 -0.924231 106 70 53 255 3
-0.290919 0.336968 -0.085749 0.337666 0.110991 -0.934699 108 73 55 255 3
-0.290429 0.332841 -0.085701 0.333823 0.023627 -0.942340 111 76 57 255 3
-0.290135 0.328636 -0.086075 0.330261 -0.059394 -0.942019 114 79 59 255 3
-0.289514 0.324560 -0.085747 0.312011 -0.134979 -0.940441 117 83 61 255 3
-0.288500 0.320638 -0.084577 0.286911 -0.195442 -0.937808 119 84 62 255 3
-0.287158 0.316838 -0.082705 0.256663 -0.253925 -0.932548 121 87 64 255 3
-0.286143 0.312906 -0.081535 0.190565 -0.316270 -0.929332 122 88 65 255 3
-0.284996 0.309020 -0.080085 0.156366 -0.353989 -0.922086 121 88 65 255 3
-0.283718 0.305180 -0.078354 0.094773 -0.372233 -0.923288 122 89 67 255 3
-0.282242 0.301407 -0.076202 0.034822 -0.398459 -0.916525 122 90 67 255 3
-0.280897 0.297579 -0.074331 -0.023941 -0.425028 -0.904864 123 91 68 255 3
-0.279683 0.293696 -0.072741 -0.086337 -0.437130 -0.895245 122 91 68 255 3
-0.278403 0.289832 -0.071011 -0.142557 -0.444574 -0.884325 123 92 69 255 3
-0.277056 0.285987 -0.069140 -0.177572 -0.454844 -0.872688 121 92 69 255 3
-0.275708 0.282135 -0.067270 -0.216700 -0.462634 -0.859658 120 91 68 255 3
-0.274492 0.278231 -0.065680 -0.253183 -0.464274 -0.848733 119 91 67 255 3
-0.273275 0.274322 -0.064090 -0.272545 -0.464415 -0.842637 119 92 68 255 3
-0.272057 0.270408 -0.062501 -0.298059 -0.465785 -0.833190 119 91 67 255 3
-0.270839 0.266488 -0.060911 -0.309515 -0.469059 -0.827154 119 91 68 255 3
-0.269620 0.262564 -0.059322 -0.326968 -0.472664 -0.818340 118 91 67 255 3
-0.268269 0.258678 -0.057453 -0.342625 -0.474176 -0.811027 119 91 68 255 3
-0.266918 0.254787 -0.055583 -0.357322 -0.475647 -0.803792 118 90 67 255 3
-0.265566 0.250890 -0.053714 -0.372952 -0.476592 -0.796094 117 89 67 255 3
-0.264213 0.246986 -0.051844 -0.389358 -0.476604 -0.788193 116 88 66 255 3
-0.262860 0.243077 -0.049975 -0.406497 -0.475594 -0.780109 116 87 65 255 3
-0.261572 0.239141 -0.048247 -0.421659 -0.473068 -0.773570 115 85 63 255 3
-0.260283 0.235199 -0.046518 -0.437127 -0.469029 -0.767419 115 85 63 255 3
-0.258994 0.231251 -0.044789 -0.451428 -0.467205 -0.760219 115 85 62 255 3
-0.257770 0.227278 -0.043201 -0.463718 -0.468866 -0.751752 115 84 62 255 3
-0.256480 0.223319 -0.041473 -0.474523 -0.471906 -0.743056 114 84 62 255 3
-0.255189 0.219355 -0.039745 -0.484549 -0.475164 -0.734460 113 82 61 255 3
-0.253898 0.215386 -0.038017 -0.494945 -0.476980 -0.726305 112 81 60 255 3
-0.252606 0.211411 -0.036289 -0.501068 -0.474871 -0.723483 111 80 59 255 3
-0.251313 0.207430 -0.034561 -0.514222 -0.472592 -0.715705 109 79 57 255 3
-0.250086 0.203425 -0.032974 -0.526158 -0.469120 -0.709284 109 79 57 255 3
-0.248793 0.199433 -0.031246 -0.526888 -0.468403 -0.709216 108 78 57 255 3
-0.247565 0.195417 -0.029659 -0.532811 -0.467529 -0.705357 108 78 57 255 3
-0.246336 0.191396 -0.028072 -0.537238 -0.469019 -0.700997 107 78 57 255 3
-0.245041 0.187389 -0.026345 -0.538089 -0.477821 -0.694368 107 78 57 255 3
-0.243679 0.183393 -0.024477 -0.533894 -0.496542 -0.684399 107 78 57 255 3
-0.242316 0.179392 -0.022610 -0.524782 -0.522361 -0.672119 106 77 56 255 3
-0.240820 0.175420 -0.020463 -0.523189 -0.545468 -0.654781 107 78 57 255 3
-0.239191 0.171477 -0.018036 -0.516514 -0.559368 -0.648322 107 78 57 255 3
-0.237627 0.167508 -0.015749 -0.511471 -0.558650 -0.652922 108 78 56 255 3
-0.236129 0.163515 -0.013602 -0.524142 -0.543076 -0.656005 108 78 56 255 3
-0.234630 0.159515 -0.011455 -0.542172 -0.520531 -0.659618 108 78 56 255 3
-0.233263 0.155475 -0.009589 -0.558535 -0.498435 -0.663024 108 78 55 255 3
-0.232029 0.151397 -0.008003 -0.568041 -0.485662 -0.664427 110 78 55 255 3
-0.230794 0.147313 -0.006418 -0.570684 -0.483009 -0.664095 111 78 55 255 3
-0.229559 0.143224 -0.004832 -0.569498 -0.484900 -0.663735 111 77 54 255 3
-0.228123 0.139177 -0.002826 -0.566195 -0.492145 -0.661224 111 77 54 255 3
-0.226820 0.135093 -0.001101 -0.561224 -0.499183 -0.660185 110 76 54 255 3
-0.225516 0.131003 0.000625 -0.553654 -0.506758 -0.660806 109 77 54 255 3
-0.224212 0.126907 0.002350 -0.552558 -0.502912 -0.664650 108 77 54 255 3
-0.222774 0.122836 0.004355 -0.562184 -0.493091 -0.663935 108 78 55 255 3
-0.221335 0.118759 0.006360 -0.577994 -0.478916 -0.660729 107 78 56 255 3
-0.219896 0.114675 0.008365 -0.588652 -0.468674 -0.658661 105 77 55 255 3
-0.218456 0.110584 0.010370 -0.600737 -0.450303 -0.660562 104 76 53 255 3
-0.217215 0.106445 0.011954 -0.664476 -0.333161 -0.668936 101 73 51 255 3
-0.215908 0.102315 0.013679 -0.719257 -0.317481 -0.617961 95 67 46 255 3
-0.214399 0.098220 0.015823 -0.806465 -0.129826 -0.576854 88 60 40 255 3
-0.213223 0.094051 0.017267 -0.867134 0.175388 -0.466174 82 57 39 255 3
-0.217589 0.088782 0.007088 -0.816194 0.321589 -0.480008 93 77 62 255 3
-0.218618 0.084192 0.003911 -0.769136 0.323475 -0.551176 104 98 86 255 3
-0.218512 0.079830 0.003114 -0.704428 0.138695 -0.696093 103 102 92 255 4
-0.216335 0.075859 0.006659 -0.685006 0.065278 -0.725607 99 98 87 255 4
-0.218302 0.071111 0.001522 -0.587056 -0.020185 -0.809295 98 97 86 255 4
-0.217996 0.066791 0.001146 -0.588897 0.002311 -0.808205 95 94 84 255 4
-0.217156 0.062567 0.001890 -0.588636 0.007697 -0.808361 94 93 82 255 4
-0.215846 0.058423 0.003614 -0.621309 0.031586 -0.782929 93 92 81 255 4
-0.214537 0.054273 0.005338 -0.630519 -0.030389 -0.775579 96 94 84 255 4
-0.215503 0.049734 0.002302 -0.682522 -0.026463 -0.730385 96 94 83 255 4
-0.215934 0.045293 0.000386 -0.783256 0.043204 -0.620196 94 93 82 255 4
-0.215294 0.041031 0.000710 -0.818859 0.105930 -0.564135 93 91 80 255 4
-0.214587 0.036778 0.001174 -0.836449 0.131873 -0.531942 93 91 80 255 4
-0.214818 0.032378 -0.000322 -0.854324 0.165260 -0.492766 95 94 83 255 4
-0.216592 0.027747 -0.005037 -0.863368 0.257930 -0.433668 98 97 85 255 4
-0.216489 0.023410 -0.005833 -0.879596 0.254700 -0.401794 97 95 84 255 4
-0.216856 0.019006 -0.007608 -0.885385 0.201552 -0.418892 95 93 82 255 4
-0.217962 0.014503 -0.010923 -0.877903 0.028972 -0.477961 94 93 81 255 4
-0.217995 0.010159 -0.011999 -0.863804 -0.107705 -0.492180 97 95 84 255 4
-0.216214 0.006065 -0.009295 -0.852762 -0.240231 -0.463774 96 94 82 255 4
-0.214432 0.001962 -0.006592 -0.829812 -0.361092 -0.425470 98 96 84 255 4
-0.213859 -0.002306 -0.006408 -0.807673 -0.379120 -0.451588 96 94 82 255 4
-0.213219 -0.006566 -0.006084 -0.811568 -0.351866 -0.466421 97 95 83 255 4
-0.211099 -0.010646 -0.002681 -0.810560 -0.290770 -0.508376 96 95 83 255 4
-0.209517 -0.014800 -0.000398 -0.788599 -0.239751 -0.566243 94 93 82 255 4
-0.209818 -0.019182 -0.002033 -0.770865 -0.201485 -0.604294 93 91 81 255 4
-0.209042 -0.023437 -0.001430 -0.725587 -0.139505 -0.673841 93 92 82 255 4
-0.207458 -0.027605 0.000853 -0.641981 -0.066988 -0.763789 95 94 83 255 4
-0.206412 -0.031838 0.002016 -0.631184 -0.098529 -0.769350 98 97 86 255 4
-0.206916 -0.036236 -0.000039 -0.630554 -0.116643 -0.767331 102 101 90 255 4
-0.207420 -0.040628 -0.002093 -0.627303 -0.114350 -0.770334 102 101 90 255 4
-0.206981 -0.044922 -0.002189 -0.591888 -0.077595 -0.802276 106 105 94 255 4
-0.206340 -0.049197 -0.001866 -0.584027 -0.077784 -0.807999 108 107 96 255 4
-0.205698 -0.053473 -0.001542 -0.590035 -0.133155 -0.796322 108 108 97 255 4
-0.203436 -0.057608 0.002139 -0.669441 -0.178939 -0.720992 106 105 94 255 4
-0.203874 -0.061983 0.000224 -0.629873 -0.208461 -0.748201 106 105 95 255 4
-0.204110 -0.066336 -0.001271 -0.664039 -0.303538 -0.683313 107 106 94 255 4
-0.203063 -0.070584 -0.000108 -0.711945 -0.428367 -0.556450 99 88 74 255 3
-0.201542 -0.074801 0.002034 -0.730089 -0.391362 -0.560183 85 64 47 255 3
-0.197451 -0.078839 0.009490 -0.741898 -0.318676 -0.589943 89 60 41 255 3
-0.197619 -0.083194 0.008135 -0.715401 -0.103524 -0.691002 97 64 44 255 3
-0.197651 -0.087536 0.007060 -0.556936 0.152832 -0.816373 104 71 49 255 3
-0.198023 -0.091896 0.005285 -0.526633 0.253815 -0.811317 108 74 51 255 3
-0.198327 -0.096247 0.003651 -0.490697 0.337093 -0.803483 110 77 53 255 3
-0.198564 -0.100590 0.002156 -0.493272 0.329319 -0.805128 110 77 54 255 3
-0.198734 -0.104925 0.000802 -0.494097 0.330397 -0.804180 110 78 55 255 3
-0.198904 -0.109255 -0.000553 -0.481106 0.347107 -0.805018 109 78 55 255 3
-0.199142 -0.113586 -0.002047 -0.482716 0.355760 -0.800262 108 78 55 255 3
-0.199585 -0.117920 -0.003961 -0.481197 0.364942 -0.797036 107 77 55 255 3
-0.200095 -0.122252 -0.006014 -0.477262 0.369349 -0.797372 106 77 55 255 3
-0.200403 -0.126570 -0.007648 -0.473263 0.370914 -0.799027 107 77 55 255 3
-0.200711 -0.130884 -0.009281 -0.471137 0.369118 -0.801113 108 77 55 255 3
-0.201019 -0.135193 -0.010915 -0.468502 0.367942 -0.803197 109 77 55 255 3
-0.201464 -0.139501 -0.012828 -0.463606 0.369727 -0.805215 109 78 56 255 3
-0.201910 -0.143803 -0.014741 -0.454714 0.379163 -0.805897 108 76 55 255 3
-0.202288 -0.148099 -0.016514 -0.442490 0.398930 -0.803155 109 77 56 255 3
-0.202599 -0.152388 -0.018147 -0.426404 0.421781 -0.800175 109 77 56 255 3
-0.203114 -0.156675 -0.020199 -0.408769 0.447291 -0.795511 109 77 56 255 3
-0.203766 -0.160958 -0.022531 -0.409971 0.464504 -0.784958 109 77 56 255 3
-0.204418 -0.165234 -0.024863 -0.403685 0.463030 -0.789077 109 78 57 255 3
-0.205071 -0.169504 -0.027194 -0.403006 0.444640 -0.799926 108 78 57 255 3
-0.205589 -0.173766 -0.029246 -0.405516 0.417240 -0.813307 109 79 58 255 3
-0.205903 -0.178022 -0.030878 -0.405659 0.391044 -0.826151 109 79 58 255 3
-0.206217 -0.182274 -0.032510 -0.403678 0.371942 -0.835885 110 80 59 255 3
-0.206601 -0.186520 -0.034282 -0.399891 0.363961 -0.841201 111 80 59 255 3
-0.206984 -0.190762 -0.036054 -0.393184 0.362994 -0.844773 113 82 60 255 3
-0.207368 -0.194998 -0.037826 -0.383651 0.358078 -0.851230 112 82 60 255 3
-0.207548 -0.199232 -0.039178 -0.369970 0.351330 -0.860052 112 82 61 255 3
-0.207797 -0.203462 -0.040670 -0.352259 0.344247 -0.870292 112 82 61 255 3
-0.208046 -0.207687 -0.042162 -0.333544 0.338006 -0.880057 113 82 61 255 3
-0.208364 -0.211905 -0.043794 -0.311545 0.334728 -0.889324 114 83 62 255 3
-0.208614 -0.216122 -0.045285 -0.299673 0.334371 -0.893528 115 84 62 255 3
-0.208864 -0.220334 -0.046777 -0.277421 0.330771 -0.902013 115 84 62 255 3
-0.209115 -0.224541 -0.048269 -0.253326 0.326393 -0.910655 116 85 63 255 3
-0.209366 -0.228745 -0.049760 -0.237814 0.319893 -0.917122 117 86 64 255 3
-0.209618 -0.232944 -0.051251 -0.210427 0.314285 -0.925713 115 85 64 255 3
-0.209870 -0.237138 -0.052743 -0.182612 0.307242 -0.933946 116 86 65 255 3
-0.210191 -0.241326 -0.054373 -0.154320 0.300483 -0.941220 117 87 66 255 3
-0.210376 -0.245515 -0.055725 -0.126044 0.291463 -0.948242 116 85 65 255 3
-0.210355 -0.249712 -0.056657 -0.092611 0.281832 -0.954984 117 85 65 255 3
-0.210404 -0.253902 -0.057729 -0.061124 0.270128 -0.960882 117 84 64 255 3
-0.210384 -0.258094 -0.058661 -0.026958 0.253675 -0.966914 117 84 64 255 3
-0.210433 -0.262278 -0.059733 0.021875 0.234086 -0.971970 116 83 63 255 3
-0.210413 -0.266464 -0.060665 0.064243 0.220392 -0.973293 114 83 63 255 3
-0.210463 -0.270643 -0.061737 0.096679 0.202318 -0.974536 113 82 63 255 3
-0.210375 -0.274828 -0.062529 0.138306 0.176807 -0.974480 112 81 62 255 3
-0.210288 -0.279012 -0.063321 0.177957 0.147462 -0.972927 111 80 61 255 3
-0.210270 -0.283188 -0.064253 0.190374 0.128473 -0.973269 110 77 58 255 3
-0.209908 -0.287389 -0.064487 0.238765 0.104014 -0.965491 110 75 56 255 3
-0.209341 -0.291608 -0.064301 0.279543 0.060370 -0.958233 110 73 55 255 3
-0.208773 -0.295827 -0.064116 0.336285 0.018237 -0.941584 110 72 54 255 3
-0.208068 -0.300060 -0.063652 0.376080 -0.015056 -0.926465 109 72 52 255 3
-0.207431 -0.304288 -0.063327 0.420481 -0.056049 -0.905568 110 73 51 255 3
-0.206450 -0.308550 -0.062304 0.455750 -0.087851 -0.885762 109 73 52 255 3
-0.204987 -0.312865 -0.060305 0.517276 -0.150817 -0.842425 107 71 53 255 3
-0.203386 -0.317199 -0.058026 0.536905 -0.172809 -0.825754 107 70 51 255 3
-0.201302 -0.321593 -0.054770 0.541877 -0.185033 -0.819837 104 72 54 255 3
-0.197357 -0.326200 -0.047746 0.571687 -0.214971 -0.791809 91 77 60 255 3
-0.290893 0.372722 -0.067923 0.318589 0.617631 -0.719050 85 70 56 255 3
-0.294046 0.367010 -0.075744 0.275979 0.539349 -0.795574 96 63 49 255 3
-0.294792 0.362348 -0.078366 0.293284 0.481756 -0.825770 103 63 49 255 3
-0.295930 0.357528 -0.081831 0.260504 0.403742 -0.877001 105 65 50 255 3
-0.296156 0.353101 -0.083328 0.263129 0.345349 -0.900831 106 66 52 255 3
-0.296253 0.348732 -0.084545 0.259778 0.286259 -0.922264 107 69 53 255 3
-0.296676 0.344232 -0.086464 0.262068 0.228029 -0.937722 109 71 54 255 3
-0.296774 0.339871 -0.087681 0.278344 0.168405 -0.945603 109 74 56 255 3
-0.296284 0.335751 -0.087633 0.267292 0.082863 -0.960046 109 75 56 255 3
-0.295795 0.331631 -0.087585 0.269279 -0.017955 -0.962895 113 79 59 255 3
-0.295632 0.327380 -0.088239 0.235778 -0.134187 -0.962498 115 81 60 255 3
-0.295143 0.323260 -0.088192 0.208412 -0.217025 -0.953659 117 84 62 255 3
-0.293804 0.319473 -0.086318 0.220871 -0.274494 -0.935879 120 87 64 255 3
-0.292335 0.315730 -0.084164 0.182214 -0.347987 -0.919621 123 88 65 255 3
-0.290799 0.312005 -0.081869 0.142167 -0.398475 -0.906094 123 89 65 255 3
-0.289524 0.308173 -0.080136 0.094092 -0.427545 -0.899084 122 89 66 255 3
-0.288248 0.304336 -0.078404 0.033206 -0.459000 -0.887816 122 90 67 255 3
-0.286514 0.300665 -0.075688 -0.030605 -0.479368 -0.877080 122 91 68 255 3
-0.285041 0.296888 -0.073534 -0.084136 -0.489170 -0.868121 122 92 68 255 3
-0.283829 0.293008 -0.071943 -0.132936 -0.497033 -0.857488 121 91 68 255 3
-0.282485 0.289170 -0.070070 -0.187181 -0.496322 -0.847719 121 92 68 255 3
-0.281076 0.285351 -0.068057 -0.225882 -0.503783 -0.833775 121 92 68 255 3
-0.279665 0.281524 -0.066045 -0.263137 -0.505335 -0.821824 119 91 67 255 3
-0.278451 0.277622 -0.064453 -0.288195 -0.497527 -0.818175 119 91 67 255 3
-0.277170 0.273737 -0.062722 -0.317604 -0.490584 -0.811453 120 92 68 255 3
-0.275824 0.269870 -0.060850 -0.341348 -0.487265 -0.803775 120 92 69 255 3
-0.274411 0.266020 -0.058838 -0.360802 -0.490352 -0.793333 119 90 67 255 3
-0.273063 0.262140 -0.056966 -0.378668 -0.492128 -0.783850 117 89 66 255 3
-0.271715 0.258255 -0.055095 -0.396270 -0.493122 -0.774468 117 88 66 255 3
-0.270366 0.254363 -0.053224 -0.413333 -0.495077 -0.764235 117 89 66 255 3
-0.269016 0.250466 -0.051352 -0.430003 -0.497157 -0.753613 115 88 65 255 3
-0.267666 0.246563 -0.049481 -0.446375 -0.496676 -0.744353 114 86 64 255 3
-0.266315 0.242653 -0.047611 -0.461721 -0.494668 -0.736286 114 85 63 255 3
-0.265029 0.238717 -0.045880 -0.476736 -0.491116 -0.729060 114 85 63 255 3
-0.263743 0.234775 -0.044150 -0.491803 -0.486802 -0.721909 114 84 62 255 3
-0.262456 0.230827 -0.042420 -0.500418 -0.482378 -0.718953 112 82 60 255 3
-0.261168 0.226874 -0.040690 -0.511452 -0.481789 -0.711545 113 82 61 255 3
-0.259880 0.222915 -0.038960 -0.522000 -0.483331 -0.702785 113 82 61 255 3
-0.258592 0.218951 -0.037230 -0.526471 -0.485872 -0.697680 111 81 60 255 3
-0.257303 0.214981 -0.035500 -0.536153 -0.487207 -0.689325 110 80 59 255 3
-0.256013 0.211006 -0.033771 -0.546840 -0.487110 -0.680947 109 79 58 255 3
-0.254723 0.207025 -0.032041 -0.558462 -0.485180 -0.672845 107 78 57 255 3
-0.253498 0.203020 -0.030452 -0.566607 -0.479114 -0.670378 107 78 57 255 3
-0.252206 0.199028 -0.028723 -0.578176 -0.474313 -0.663882 106 76 56 255 3
-0.250914 0.195030 -0.026994 -0.587159 -0.471191 -0.658197 106 77 56 255 3
-0.249622 0.191028 -0.025265 -0.592795 -0.471820 -0.652672 105 76 56 255 3
-0.248263 0.187037 -0.023396 -0.593257 -0.480138 -0.646153 105 76 56 255 3
-0.246903 0.183041 -0.021527 -0.588904 -0.497539 -0.636904 104 75 55 255 3
-0.245543 0.179039 -0.019658 -0.581997 -0.520072 -0.625144 104 76 55 255 3
-0.244115 0.175049 -0.017649 -0.573690 -0.541402 -0.614625 104 76 54 255 3
-0.242489 0.171104 -0.015220 -0.569014 -0.554970 -0.606821 105 76 55 255 3
-0.240862 0.167152 -0.012790 -0.575124 -0.550325 -0.605289 104 76 54 255 3
-0.239234 0.163192 -0.010361 -0.587825 -0.535350 -0.606516 104 76 54 255 3
-0.237738 0.159191 -0.008212 -0.612469 -0.510884 -0.603224 104 75 53 255 3
-0.236374 0.155150 -0.006344 -0.628536 -0.489067 -0.604778 105 75 53 255 3
-0.235009 0.151102 -0.004476 -0.638704 -0.475522 -0.604927 107 75 52 255 3
-0.233709 0.147033 -0.002749 -0.638490 -0.468961 -0.610252 108 75 53 255 3
-0.232476 0.142942 -0.001162 -0.640208 -0.477479 -0.601787 108 75 52 255 3
-0.231109 0.138878 0.000705 -0.636244 -0.484302 -0.600538 107 74 52 255 3
-0.229675 0.134823 0.002713 -0.630874 -0.490738 -0.600978 107 75 52 255 3
-0.228374 0.130730 0.004440 -0.625023 -0.492519 -0.605617 106 75 53 255 3
-0.227071 0.126633 0.006167 -0.616021 -0.492289 -0.614955 106 77 54 255 3
-0.225702 0.122545 0.008034 -0.618236 -0.487174 -0.616803 106 77 55 255 3
-0.224200 0.118480 0.010181 -0.629112 -0.472237 -0.617422 105 77 55 255 3
-0.223161 0.114307 0.011346 -0.635398 -0.477990 -0.606461 104 76 54 255 3
-0.222056 0.110144 0.012652 -0.648575 -0.467623 -0.600566 103 75 53 255 3
-0.220618 0.106047 0.014659 -0.678597 -0.420999 -0.601885 102 73 51 255 3
-0.219313 0.101917 0.016385 -0.725017 -0.340077 -0.598915 96 68 46 255 3
-0.217807 0.097821 0.018531 -0.848925 -0.145379 -0.508125 92 63 41 255 3
-0.216300 0.093719 0.020678 -0.892192 0.075584 -0.445287 88 59 39 255 3
-0.219721 0.088634 0.012451 -0.853281 0.285130 -0.436591 79 59 42 255 3
-0.221772 0.079457 0.006092 -0.769429 0.273606 -0.577164 101 100 89 255 4
-0.221332 0.075159 0.005995 -0.737934 0.133681 -0.661501 100 100 90 255 4
-0.218292 0.071341 0.011365 -0.759781 0.136447 -0.635700 99 98 87 255 4
-0.221587 0.066356 0.003421 -0.589182 -0.002907 -0.807995 96 96 85 255 4
-0.221214 0.062049 0.003185 -0.594167 -0.001137 -0.804341 94 93 82 255 4
-0.219908 0.057907 0.004910 -0.592120 -0.019472 -0.805615 95 94 83 255 4
-0.218600 0.053759 0.006636 -0.612266 -0.048768 -0.789146 94 93 83 255 4
-0.217827 0.049515 0.007241 -0.629061 -0.075817 -0.773650 94 93 82 255 4
-0.218923 0.044960 0.003922 -0.699649 -0.035704 -0.713594 93 91 81 255 4
-0.218417 0.040674 0.003966 -0.759555 0.001355 -0.650442 92 90 80 255 4
-0.217710 0.036420 0.004430 -0.813296 0.069242 -0.577716 93 92 81 255 4
-0.217004 0.032165 0.004895 -0.844490 0.120066 -0.521940 95 94 82 255 4
-0.217567 0.027714 0.002697 -0.872327 0.190402 -0.450324 99 98 86 255 4
-0.219337 0.023090 -0.002022 -0.887015 0.227212 -0.401970 95 93 82 255 4
-0.219367 0.018733 -0.003099 -0.907623 0.188545 -0.375061 93 91 80 255 4
-0.220268 0.014256 -0.005996 -0.910248 0.048907 -0.411166 94 93 82 255 4
-0.220299 0.009909 -0.007073 -0.898398 -0.122697 -0.421695 94 93 81 255 4
-0.218521 0.005810 -0.004367 -0.880416 -0.260721 -0.396096 92 91 79 255 4
-0.217546 0.001597 -0.003342 -0.841916 -0.328109 -0.428394 91 89 79 255 4
-0.216505 -0.002611 -0.002177 -0.822157 -0.348491 -0.450124 91 90 79 255 4
-0.214389 -0.006688 0.001229 -0.810867 -0.279352 -0.514253 94 93 82 255 4
-0.212877 -0.010849 0.003374 -0.792205 -0.206426 -0.574281 93 92 81 255 4
-0.213108 -0.015227 0.001877 -0.760666 -0.179342 -0.623878 92 91 80 255 4
-0.212803 -0.019538 0.001501 -0.707816 -0.108284 -0.698048 93 92 81 255 4
-0.211223 -0.023703 0.003786 -0.605622 0.004045 -0.795742 97 96 85 255 4
-0.210380 -0.027957 0.004530 -0.608195 -0.057324 -0.791715 97 96 85 255 4
-0.210881 -0.032357 0.002473 -0.609982 -0.102149 -0.785804 103 102 90 255 4
-0.211383 -0.036752 0.000417 -0.616530 -0.102717 -0.780602 102 102 90 255 4
-0.211145 -0.041066 -0.000099 -0.594304 -0.072846 -0.800935 102 102 91 255 4
-0.210505 -0.045339 0.000225 -0.601264 -0.083040 -0.794724 103 103 91 255 4
-0.209931 -0.049620 0.000409 -0.614533 -0.116462 -0.780247 105 105 93 255 4
-0.207742 -0.053755 0.003953 -0.684126 -0.176586 -0.707665 106 105 94 255 4
-0.207975 -0.058113 0.002457 -0.686337 -0.241373 -0.686061 105 105 94 255 4
-0.208210 -0.062468 0.000961 -0.683181 -0.276495 -0.675881 105 102 90 255 4
-0.206692 -0.066675 0.003105 -0.723923 -0.423356 -0.544707 98 87 71 255 4
-0.205107 -0.070885 0.005389 -0.762365 -0.408735 -0.501732 87 65 47 255 3
-0.200622 -0.074883 0.013692 -0.797376 -0.298031 -0.524756 88 60 41 255 3
-0.200450 -0.079218 0.013036 -0.771463 -0.145724 -0.619362 96 66 45 255 3
-0.200684 -0.083579 0.011540 -0.708470 0.105701 -0.697780 103 70 49 255 3
-0.201053 -0.087944 0.009764 -0.606814 0.244971 -0.756152 105 72 50 255 3
-0.201422 -0.092304 0.007988 -0.567353 0.316529 -0.760210 107 74 51 255 3
-0.201724 -0.096655 0.006352 -0.579021 0.315466 -0.751808 108 75 52 255 3
-0.202095 -0.101005 0.004576 -0.576927 0.314309 -0.753900 109 76 53 255 3
-0.202263 -0.105339 0.003220 -0.576083 0.316894 -0.753463 108 76 53 255 3
-0.202432 -0.109670 0.001864 -0.579447 0.327814 -0.746176 107 77 54 255 3
-0.202803 -0.114006 0.000089 -0.573202 0.339586 -0.745735 106 77 54 255 3
-0.203243 -0.118340 -0.001826 -0.565631 0.352750 -0.745405 106 77 54 255 3
-0.203684 -0.122668 -0.003741 -0.558006 0.360828 -0.747283 105 77 55 255 3
-0.204125 -0.126990 -0.005656 -0.553211 0.361972 -0.750289 105 76 54 255 3
-0.204432 -0.131303 -0.007291 -0.550175 0.359902 -0.753510 107 77 55 255 3
-0.204806 -0.135613 -0.009066 -0.544636 0.360993 -0.757004 108 78 55 255 3
-0.205249 -0.139920 -0.010981 -0.537151 0.365900 -0.759991 109 78 55 255 3
-0.205624 -0.144219 -0.012756 -0.525589 0.379848 -0.761230 108 76 54 255 3
-0.206068 -0.148515 -0.014670 -0.509659 0.401813 -0.760785 108 76 55 255 3
-0.206445 -0.152804 -0.016444 -0.491068 0.427467 -0.759029 108 76 55 255 3
-0.207094 -0.157092 -0.018778 -0.472223 0.453282 -0.756003 108 77 56 255 3
-0.207743 -0.161373 -0.021112 -0.458947 0.466132 -0.756365 108 77 56 255 3
-0.208393 -0.165647 -0.023445 -0.454704 0.461399 -0.761811 107 77 56 255 3
-0.209043 -0.169914 -0.025779 -0.456696 0.440560 -0.772875 107 77 56 255 3
-0.209423 -0.174174 -0.027553 -0.459072 0.413019 -0.786555 108 77 56 255 3
-0.209803 -0.178429 -0.029326 -0.458842 0.388039 -0.799306 109 78 57 255 3
-0.210184 -0.182678 -0.031100 -0.454872 0.371169 -0.809522 110 79 57 255 3
-0.210565 -0.186923 -0.032873 -0.448291 0.365417 -0.815785 111 81 59 255 3
-0.210947 -0.191162 -0.034646 -0.439387 0.366024 -0.820345 112 81 59 255 3
-0.211261 -0.195397 -0.036280 -0.429996 0.363728 -0.826320 112 81 59 255 3
-0.211508 -0.199629 -0.037773 -0.417199 0.360805 -0.834125 113 82 60 255 3
-0.211823 -0.203855 -0.039406 -0.410528 0.356191 -0.839401 112 81 59 255 3
-0.212070 -0.208078 -0.040899 -0.393607 0.353308 -0.848674 113 82 60 255 3
-0.212387 -0.212294 -0.042532 -0.374730 0.352336 -0.857576 113 82 60 255 3
-0.212635 -0.216508 -0.044025 -0.354917 0.349061 -0.867289 113 82 61 255 3
-0.212884 -0.220718 -0.045518 -0.333667 0.346293 -0.876783 114 83 61 255 3
-0.213133 -0.224924 -0.047011 -0.311271 0.341208 -0.886954 114 84 62 255 3
-0.213383 -0.229125 -0.048503 -0.296921 0.338628 -0.892843 115 85 63 255 3
-0.213701 -0.233319 -0.050136 -0.271545 0.341035 -0.899977 115 85 63 255 3
-0.213952 -0.237512 -0.051628 -0.253880 0.329235 -0.909477 116 86 64 255 3
-0.214203 -0.241700 -0.053121 -0.223210 0.326752 -0.918374 116 86 65 255 3
-0.214523 -0.245880 -0.054753 -0.191029 0.318759 -0.928386 116 85 64 255 3
-0.214843 -0.250056 -0.056385 -0.159098 0.309615 -0.937457 116 85 64 255 3
-0.215164 -0.254227 -0.058017 -0.127991 0.300068 -0.945292 116 84 64 255 3
-0.215144 -0.258414 -0.058949 -0.092678 0.289171 -0.952780 117 85 64 255 3
-0.215192 -0.262594 -0.060022 -0.060104 0.275212 -0.959503 117 85 64 255 3
-0.215172 -0.266776 -0.060955 -0.025126 0.256717 -0.966160 116 84 64 255 3
-0.215220 -0.270950 -0.062027 0.023427 0.232515 -0.972311 114 83 63 255 3
-0.215201 -0.275126 -0.062960 0.047364 0.220491 -0.974238 114 82 63 255 3
-0.215182 -0.279300 -0.063892 0.102514 0.195341 -0.975363 114 82 62 255 3
-0.215094 -0.283476 -0.064685 0.150272 0.164075 -0.974935 114 80 60 255 3
-0.215076 -0.287645 -0.065617 0.193027 0.130121 -0.972527 113 78 58 255 3
-0.214920 -0.291823 -0.066270 0.218931 0.108375 -0.969703 112 76 56 255 3
-0.214422 -0.296030 -0.066224 0.264193 0.083948 -0.960810 111 74 55 255 3
-0.213787 -0.300249 -0.065899 0.308249 0.038048 -0.950545 109 72 54 255 3
-0.213151 -0.304470 -0.065574 0.366189 -0.005210 -0.930526 108 72 53 255 3
-0.212516 -0.308692 -0.065249 0.408750 -0.040695 -0.911739 108 72 52 255 3
-0.211880 -0.312915 -0.064923 0.432570 -0.062200 -0.899452 108 73 53 255 3
-0.210558 -0.317211 -0.063201 0.506224 -0.142343 -0.850574 106 70 51 255 3
-0.208891 -0.321549 -0.060780 0.529347 -0.169027 -0.831397 106 68 52 255 3
-0.207155 -0.325902 -0.058220 0.545562 -0.197676 -0.814424 105 71 54 255 3
