ply
format ascii 1.0
comment Created by labeled_geometry.py
element vertex 645
property float x
property float y
property float z
property float nx
property float ny
property float nz
property uchar red
property uchar green
property uchar blue
property uchar alpha
property uchar label
end_header
-0.084822 0.013776 -0.017256 0.180711 -0.416060 -0.891200 129 103 78 255 1
-0.083822 0.014098 -0.017183 0.189728 -0.420287 -0.887334 130 104 78 255 1
-0.082818 0.014388 -0.017132 0.207257 -0.420262 -0.883416 130 103 77 255 1
-0.081819 0.014710 -0.017059 0.238435 -0.417013 -0.877069 131 104 78 255 1
-0.080823 0.015065 -0.016965 0.276985 -0.405406 -0.871163 131 104 78 255 1
-0.079833 0.015454 -0.016849 0.316076 -0.400056 -0.860262 132 104 79 255 1
-0.078861 0.015974 -0.016648 0.358839 -0.378488 -0.853218 133 103 78 255 1
-0.077888 0.016494 -0.016447 -0.412487 0.347718 0.841990 136 105 80 255 1
-0.076937 0.017179 -0.016138 -0.466030 0.318029 0.825635 137 107 81 255 1
-0.075984 0.017864 -0.015830 -0.515289 0.288336 0.807056 136 107 81 255 1
-0.075053 0.018714 -0.015414 -0.556670 0.255745 0.790388 136 106 81 255 1
-0.074125 0.019597 -0.014977 -0.590601 0.224946 0.774977 135 106 81 255 1
-0.073203 0.020547 -0.014497 -0.612205 0.197327 0.765680 136 107 81 255 1
-0.072279 0.021498 -0.014017 -0.614508 0.187880 0.766212 137 107 81 255 1
-0.071365 0.022548 -0.013472 -0.594321 0.186074 0.782406 138 108 83 255 1
-0.070457 0.023664 -0.012885 -0.565625 0.193543 0.801629 137 109 83 255 1
-0.069504 0.024451 -0.012512 -0.537818 0.203346 0.818170 136 110 84 255 1
-0.068545 0.025206 -0.012160 -0.535483 0.213925 0.817003 134 109 84 255 1
-0.067585 0.025961 -0.011809 -0.525868 0.220325 0.821535 133 109 84 255 1
-0.066626 0.026749 -0.011436 -0.530193 0.221103 0.818541 132 108 83 255 1
-0.065662 0.027505 -0.011084 -0.551913 0.215046 0.805697 132 106 81 255 1
-0.064728 0.028525 -0.010561 -0.574817 0.201478 0.793090 130 103 79 255 1
-0.063779 0.029447 -0.010102 -0.614280 0.185344 0.767012 128 101 76 255 1
-0.062844 0.030502 -0.009558 -0.662156 0.159352 0.732227 126 97 73 255 1
-0.061917 0.031657 -0.008949 -0.702215 0.148900 0.696220 126 95 71 255 1
-0.061021 0.033110 -0.008147 -0.780410 0.096387 0.617794 126 95 70 255 1
-0.060176 0.035061 -0.007024 -0.810896 0.076213 0.580206 122 91 67 255 1
-0.059431 0.037974 -0.005278 -0.818952 0.040090 0.572459 121 87 63 255 1
-0.039712 0.057697 0.004612 -0.726595 0.326915 -0.604306 116 101 78 255 2
-0.038301 0.053359 0.001683 -0.683842 0.201567 -0.701235 123 107 81 255 2
-0.036996 0.050253 -0.000453 -0.633387 0.207215 -0.745576 129 109 82 255 2
-0.035744 0.047747 -0.002203 -0.584027 0.190070 -0.789168 135 107 81 255 2
-0.034548 0.045907 -0.003524 -0.523076 0.188589 -0.831159 139 111 84 255 2
-0.033412 0.044834 -0.004352 -0.473728 0.193761 -0.859092 138 110 83 255 4
-0.032297 0.044028 -0.005008 -0.427191 0.194740 -0.882940 137 109 82 255 4
-0.031188 0.043255 -0.005643 -0.397517 0.189953 -0.897718 136 109 83 255 4
-0.030091 0.042615 -0.006192 -0.358867 0.193959 -0.913014 137 111 84 255 4
-0.028996 0.041974 -0.006741 -0.325782 0.203223 -0.923345 137 111 84 255 4
-0.027924 0.041668 -0.007075 -0.301046 0.209181 -0.930384 136 110 83 255 4
-0.026864 0.041528 -0.007302 -0.275742 0.225740 -0.934349 137 111 83 255 4
-0.025800 0.041288 -0.007594 -0.256067 0.238994 -0.936649 140 112 85 255 4
-0.024729 0.040913 -0.007971 0.238891 -0.252964 0.937518 141 112 84 255 4
-0.023659 0.040505 -0.008370 0.242392 -0.262361 0.934031 144 114 85 255 4
-0.022589 0.040062 -0.008791 0.254897 -0.271360 0.928112 146 115 87 255 4
-0.021521 0.039619 -0.009211 0.269200 -0.277445 0.922256 145 117 87 255 4
-0.020453 0.039142 -0.009653 -0.285231 0.282504 -0.915879 143 119 88 255 4
-0.019379 0.038463 -0.010224 -0.301235 0.283606 -0.910398 140 120 89 255 4
-0.018304 0.037716 -0.010837 -0.314226 0.286882 -0.904964 138 122 91 255 4
-0.017219 0.036666 -0.011644 -0.320782 0.259214 -0.910992 139 119 90 255 4
-0.016148 0.035850 -0.012301 -0.315483 0.244444 -0.916907 139 117 89 255 4
-0.015089 0.035235 -0.012828 -0.309228 0.219097 -0.925405 138 113 87 255 4
-0.014033 0.034620 -0.013356 -0.291687 0.215179 -0.931996 139 115 87 255 4
-0.012977 0.033971 -0.013906 -0.264940 0.209439 -0.941245 139 114 86 255 4
-0.011930 0.033455 -0.014369 -0.239125 0.189389 -0.952340 141 114 87 255 4
-0.010892 0.033141 -0.014704 -0.213469 0.189630 -0.958369 141 113 86 255 4
-0.009860 0.032962 -0.014953 -0.191746 0.188022 -0.963266 140 113 86 255 4
-0.008833 0.032917 -0.015116 0.171125 -0.199377 0.964865 139 112 85 255 4
-0.007806 0.032838 -0.015301 0.142019 -0.212402 0.966807 138 111 84 255 4
-0.006784 0.032894 -0.015399 0.124436 -0.209224 0.969918 134 108 81 255 4
-0.005764 0.033017 -0.015455 0.104518 -0.224208 0.968920 132 105 80 255 4
-0.004743 0.033073 -0.015554 0.090689 -0.225212 0.970080 132 103 80 255 4
-0.003721 0.033061 -0.015696 0.069654 -0.227452 0.971295 134 103 81 255 4
-0.002703 0.033217 -0.015730 0.036795 -0.227688 0.973039 137 105 82 255 4
-0.001691 0.033644 -0.015593 -0.002387 -0.242464 0.970157 142 109 85 255 4
-0.000684 0.034410 -0.015241 -0.039186 -0.254656 0.966237 141 112 87 255 4
0.000349 0.033653 -0.015855 -0.059872 -0.241291 0.968604 144 117 91 255 4
0.001361 0.034148 -0.015675 -0.105199 -0.245715 0.963617 138 113 89 255 4
0.002365 0.035320 -0.015065 -0.139681 -0.269445 0.952832 130 107 86 255 4
0.003373 0.036458 -0.014477 -0.168107 -0.285322 0.943574 120 103 82 255 4
0.090239 0.074389 -0.001876 -0.586905 0.128978 -0.799317 98 90 69 255 3
0.090981 0.072042 -0.003459 -0.562621 0.109771 -0.819395 117 91 68 255 3
0.091812 0.070494 -0.004547 -0.546272 0.089134 -0.832852 115 87 66 255 3
0.092752 0.069887 -0.005054 -0.511070 0.065205 -0.857062 114 85 65 255 3
0.093681 0.069210 -0.005604 -0.457466 0.027074 -0.888815 116 87 66 255 3
0.094612 0.068567 -0.006133 -0.389961 -0.024197 -0.920514 119 87 67 255 3
0.095544 0.067958 -0.006641 -0.345756 -0.048332 -0.937079 117 86 66 255 3
0.096532 0.067803 -0.006868 -0.299000 -0.082849 -0.950650 116 85 66 255 3
0.097518 0.067647 -0.007096 -0.239725 -0.107148 -0.964910 116 85 66 255 3
0.098504 0.067492 -0.007324 -0.194184 -0.129011 -0.972445 116 84 66 255 3
0.099497 0.067405 -0.007509 -0.135708 -0.154491 -0.978630 115 83 65 255 3
0.100490 0.067319 -0.007694 -0.082566 -0.176260 -0.980875 115 83 64 255 3
0.101510 0.067442 -0.007750 -0.042783 -0.198759 -0.979114 115 84 65 255 3
0.102549 0.067705 -0.007720 0.017085 -0.220532 -0.975230 115 84 64 255 3
0.103583 0.067934 -0.007711 0.073271 -0.244385 -0.966906 115 83 63 255 3
0.104617 0.068162 -0.007702 0.125880 -0.262877 -0.956582 115 83 64 255 3
0.105652 0.068390 -0.007694 0.168775 -0.274527 -0.946652 114 83 63 255 3
0.106686 0.068618 -0.007685 0.211330 -0.297278 -0.931110 114 83 63 255 3
0.107766 0.069162 -0.007483 0.247328 -0.311200 -0.917597 115 84 63 255 3
0.108852 0.069741 -0.007259 0.312251 -0.334741 -0.889071 116 85 64 255 3
0.109939 0.070320 -0.007035 0.347434 -0.361386 -0.865269 116 86 64 255 3
0.111022 0.070864 -0.006833 -0.403193 0.378439 0.833198 116 85 63 255 3
0.112105 0.071409 -0.006631 -0.445355 0.397057 0.802499 116 83 62 255 3
0.113222 0.072164 -0.006299 -0.477081 0.409873 0.777431 115 82 61 255 3
0.114352 0.072990 -0.005925 -0.520269 0.428144 0.738927 115 81 59 255 3
0.115483 0.073817 -0.005550 -0.568754 0.447508 0.690113 114 80 58 255 3
0.116616 0.074644 -0.005176 -0.607534 0.455108 0.650983 114 80 57 255 3
0.117756 0.075506 -0.004780 -0.637664 0.465083 0.614071 112 79 56 255 3
0.118938 0.076615 -0.004233 -0.679330 0.483648 0.551902 111 79 56 255 3
0.120139 0.077830 -0.003622 -0.706304 0.504921 0.496175 108 77 55 255 3
0.121332 0.078976 -0.003054 -0.722954 0.526757 0.447061 106 76 54 255 3
0.122545 0.080227 -0.002421 -0.748848 0.547708 0.373151 100 72 50 255 3
0.123773 0.081550 -0.001745 -0.719498 0.610721 0.330670 94 66 45 255 3
0.125021 0.082979 -0.001005 0.601141 -0.730147 -0.324831 91 60 41 255 3
0.126357 0.084903 0.000037 0.243262 -0.891822 -0.381415 84 53 37 255 3
0.127302 0.084501 -0.000342 -0.008502 -0.899382 -0.437082 86 59 42 255 3
0.128252 0.084133 -0.000699 -0.124886 -0.863924 -0.487892 96 66 47 255 3
0.129236 0.083977 -0.000927 -0.178526 -0.823994 -0.537739 100 71 51 255 3
0.130238 0.083927 -0.001090 -0.173020 -0.798773 -0.576217 102 74 56 255 3
0.131238 0.083876 -0.001253 -0.089700 -0.775471 -0.624979 106 79 60 255 3
0.132238 0.083825 -0.001417 0.005899 -0.760689 -0.649089 107 81 61 255 3
0.133281 0.084021 -0.001429 0.108636 -0.720366 -0.685034 110 83 63 255 3
0.134343 0.084324 -0.001377 0.154928 -0.696509 -0.700623 111 81 61 255 3
0.135412 0.084661 -0.001304 0.192564 -0.671115 -0.715908 117 84 62 255 3
0.136488 0.085034 -0.001209 0.211088 -0.657337 -0.723429 116 83 63 255 3
-0.130774 0.023888 -0.003556 -0.874529 -0.129363 -0.467401 82 74 58 255 1
-0.128350 0.017982 -0.007623 -0.840618 -0.201951 -0.502571 96 73 53 255 1
-0.126758 0.015722 -0.009266 -0.792153 -0.262084 -0.551186 97 71 51 255 1
-0.125332 0.014172 -0.010437 -0.752736 -0.298362 -0.586829 100 71 50 255 1
-0.123920 0.012653 -0.011587 -0.719496 -0.339433 -0.605897 102 71 49 255 1
-0.122660 0.011813 -0.012286 -0.696556 -0.359128 -0.621158 105 73 50 255 1
-0.121356 0.010744 -0.013136 -0.642397 -0.392361 -0.658315 103 72 48 255 1
-0.120056 0.009675 -0.013986 -0.584861 -0.428898 -0.688465 103 73 49 255 1
-0.118842 0.008994 -0.014578 -0.526455 -0.455267 -0.718037 100 73 49 255 1
-0.117680 0.008538 -0.015020 -0.474357 -0.464774 -0.747643 100 74 51 255 1
-0.116540 0.008180 -0.015397 -0.414010 -0.474728 -0.776678 101 74 52 255 1
-0.115408 0.007853 -0.015754 -0.366964 -0.475451 -0.799552 100 75 52 255 1
-0.114272 0.007494 -0.016131 -0.315787 -0.476800 -0.820330 103 77 54 255 1
-0.113164 0.007263 -0.016423 -0.259480 -0.477016 -0.839718 104 78 55 255 1
-0.112090 0.007195 -0.016608 -0.216740 -0.483122 -0.848303 107 80 57 255 1
-0.111018 0.007127 -0.016793 -0.184645 -0.484441 -0.855116 109 81 59 255 1
-0.109952 0.007091 -0.016956 -0.157776 -0.483709 -0.860891 112 83 60 255 1
-0.108888 0.007054 -0.017119 -0.122999 -0.480797 -0.868162 112 83 60 255 1
-0.107824 0.007018 -0.017282 -0.087410 -0.476148 -0.875010 114 85 61 255 1
-0.106768 0.007013 -0.017424 -0.046017 -0.468445 -0.882293 116 87 62 255 1
-0.105743 0.007172 -0.017458 -0.003759 -0.454660 -0.890657 118 89 64 255 1
-0.104719 0.007330 -0.017493 0.032918 -0.444681 -0.895084 119 90 65 255 1
-0.103695 0.007488 -0.017527 0.064855 -0.434563 -0.898303 122 93 67 255 1
-0.102677 0.007679 -0.017540 0.087630 -0.424573 -0.901143 121 92 66 255 1
-0.101659 0.007869 -0.017553 0.110746 -0.415153 -0.902986 121 92 65 255 1
-0.100648 0.008093 -0.017545 0.136606 -0.406260 -0.903489 122 94 67 255 1
-0.099654 0.008414 -0.017472 0.162013 -0.397421 -0.903221 124 95 68 255 1
-0.098665 0.008767 -0.017377 0.180225 -0.392114 -0.902090 122 94 68 255 1
-0.097671 0.009088 -0.017304 0.188777 -0.390845 -0.900890 122 94 67 255 1
-0.096681 0.009442 -0.017210 0.189399 -0.388007 -0.901986 123 94 67 255 1
-0.095692 0.009796 -0.017116 0.180328 -0.389489 -0.903205 123 95 68 255 1
-0.094690 0.010085 -0.017064 0.165544 -0.394937 -0.903670 123 96 68 255 1
-0.093683 0.010341 -0.017034 0.148586 -0.403537 -0.902818 123 95 68 255 1
-0.092681 0.010630 -0.016983 0.133126 -0.414336 -0.900335 123 96 69 255 1
-0.091663 0.010821 -0.016996 0.124496 -0.423418 -0.897340 125 96 70 255 1
-0.090645 0.011011 -0.017009 0.129528 -0.429651 -0.893657 127 99 73 255 1
-0.089632 0.011235 -0.017000 0.138412 -0.435934 -0.889271 127 99 74 255 1
-0.088619 0.011458 -0.016992 0.149915 -0.441065 -0.884866 127 101 74 255 1
-0.087622 0.011780 -0.016919 0.163365 -0.444105 -0.880956 126 101 75 255 1
-0.086646 0.012233 -0.016760 0.177690 -0.446390 -0.877019 127 102 76 255 1
-0.085632 0.012456 -0.016752 0.188801 -0.449240 -0.873234 129 103 77 255 1
-0.084624 0.012713 -0.016722 0.199128 -0.452059 -0.869477 129 103 77 255 1
-0.083626 0.013035 -0.016649 0.206698 -0.455857 -0.865720 129 104 78 255 1
-0.082632 0.013390 -0.016554 0.220750 -0.457139 -0.861564 128 102 76 255 1
-0.081633 0.013712 -0.016482 0.248025 -0.451209 -0.857260 129 103 77 255 1
-0.080639 0.014067 -0.016387 0.283578 -0.450339 -0.846627 131 104 78 255 1
-0.079644 0.014422 -0.016293 0.324653 -0.440034 -0.837240 131 103 78 255 1
-0.078672 0.014941 -0.016091 0.364181 -0.416854 -0.832830 134 105 79 255 1
-0.077700 0.015461 -0.015889 -0.415358 0.386678 0.823382 134 105 80 255 1
-0.076745 0.016112 -0.015602 -0.467051 0.348609 0.812610 135 106 81 255 1
-0.075793 0.016797 -0.015292 -0.518510 0.315162 0.794872 135 106 80 255 1
-0.074858 0.017613 -0.014897 -0.560399 0.279774 0.779538 135 106 81 255 1
-0.073935 0.018529 -0.014438 -0.589858 0.247281 0.768713 134 105 79 255 1
-0.073009 0.019445 -0.013978 -0.611108 0.222656 0.759586 136 106 81 255 1
-0.072086 0.020395 -0.013497 -0.616896 0.207084 0.759312 137 106 81 255 1
-0.071164 0.021378 -0.012995 -0.602000 0.205455 0.771611 137 107 82 255 1
-0.070253 0.022460 -0.012428 -0.578266 0.212247 0.787756 136 109 83 255 1
-0.069300 0.023247 -0.012054 -0.557789 0.222217 0.799682 136 109 84 255 1
-0.068351 0.024066 -0.011659 -0.536238 0.234260 0.810908 135 109 84 255 1
-0.067387 0.024787 -0.011328 -0.538600 0.240348 0.807554 132 108 83 255 1
-0.066425 0.025542 -0.010976 -0.546926 0.245877 0.800260 131 106 81 255 1
-0.065474 0.026396 -0.010559 -0.565419 0.230816 0.791849 131 104 79 255 1
-0.064528 0.027317 -0.010099 -0.596205 0.219451 0.772257 129 102 77 255 1
-0.063580 0.028238 -0.009640 -0.631663 0.206368 0.747271 126 99 74 255 1
-0.062642 0.029258 -0.009115 -0.674696 0.179974 0.715818 123 95 71 255 1
-0.061720 0.030445 -0.008484 -0.706238 0.161254 0.689365 123 94 69 255 1
-0.060821 0.031864 -0.007702 -0.784152 0.108851 0.610948 123 92 68 255 1
-0.059987 0.033912 -0.006512 -0.816772 0.082219 0.571072 118 89 66 255 1
-0.059232 0.036723 -0.004827 -0.835049 0.059832 0.546913 118 87 63 255 1
-0.040483 0.054725 0.004129 -0.749156 0.176691 -0.638393 121 98 75 255 2
-0.039141 0.051326 0.001795 -0.715033 0.167803 -0.678653 123 102 77 255 2
-0.037847 0.048424 -0.000216 -0.689042 0.146184 -0.709825 129 102 77 255 2
-0.036616 0.046221 -0.001776 -0.644135 0.155747 -0.748888 129 101 75 255 2
-0.035427 0.044517 -0.003014 -0.590381 0.157751 -0.791559 133 104 79 255 2
-0.034250 0.042879 -0.004209 -0.542143 0.139005 -0.828709 134 105 80 255 4
-0.033129 0.041973 -0.004931 -0.480312 0.153776 -0.863512 132 104 79 255 4
-0.032007 0.041001 -0.005696 -0.445899 0.151413 -0.882184 133 106 80 255 4
-0.030904 0.040261 -0.006311 -0.394272 0.173487 -0.902470 135 108 82 255 4
-0.029811 0.039621 -0.006861 -0.373830 0.173632 -0.911100 134 109 82 255 4
-0.028714 0.038879 -0.007475 -0.342123 0.181587 -0.921943 134 109 83 255 4
-0.027645 0.038539 -0.007832 -0.323799 0.192880 -0.926257 135 110 83 255 4
-0.026577 0.038198 -0.008189 -0.298645 0.207789 -0.931469 136 110 82 255 4
-0.025509 0.037824 -0.008567 -0.300118 0.213831 -0.929626 139 111 83 255 4
-0.024438 0.037348 -0.009010 -0.301126 0.221831 -0.927423 141 111 83 255 4
-0.023370 0.036906 -0.009431 -0.311170 0.212919 -0.926196 141 111 83 255 4
-0.022300 0.036362 -0.009917 -0.317250 0.212277 -0.924278 141 113 84 255 4
-0.021232 0.035818 -0.010403 -0.324397 0.214485 -0.921283 141 113 84 255 4
-0.020156 0.035039 -0.011039 -0.331562 0.215928 -0.918391 140 115 86 255 4
-0.019084 0.034292 -0.011654 -0.336544 0.215421 -0.916696 139 114 85 255 4
-0.018021 0.033679 -0.012183 -0.335563 0.212193 -0.917808 139 117 87 255 4
-0.016962 0.033099 -0.012691 -0.327843 0.204623 -0.922306 138 116 88 255 4
-0.015909 0.032585 -0.013155 -0.315417 0.187146 -0.930316 136 113 85 255 4
-0.014857 0.032038 -0.013641 -0.302122 0.170980 -0.937810 138 113 86 255 4
-0.013808 0.031490 -0.014127 -0.286767 0.171482 -0.942528 139 114 87 255 4
-0.012760 0.030941 -0.014613 -0.265026 0.157327 -0.951320 139 113 86 255 4
-0.011719 0.030493 -0.015035 -0.241545 0.150953 -0.958577 139 112 85 255 4
-0.010692 0.030381 -0.015241 -0.216375 0.150087 -0.964705 139 111 85 255 4
-0.009668 0.030335 -0.015405 -0.193939 0.159885 -0.967897 137 110 83 255 4
-0.008644 0.030290 -0.015568 -0.170340 0.162588 -0.971879 139 112 85 255 4
-0.007624 0.030312 -0.015689 0.154845 -0.169352 0.973316 141 114 87 255 4
-0.006605 0.030367 -0.015788 0.132569 -0.168545 0.976739 140 115 88 255 4
-0.005586 0.030422 -0.015887 0.106155 -0.176908 0.978486 139 113 87 255 4
-0.004567 0.030444 -0.016007 0.085974 -0.173014 0.981160 138 113 88 255 4
-0.003552 0.030566 -0.016063 0.064342 -0.166050 0.984016 139 113 88 255 4
-0.002538 0.030790 -0.016055 0.028939 -0.162538 0.986278 138 112 87 255 4
-0.001527 0.031114 -0.015982 -0.011401 -0.155353 0.987793 141 115 89 255 4
-0.000503 0.030764 -0.016339 -0.065285 -0.136183 0.988530 139 114 88 255 4
0.000509 0.030987 -0.016330 -0.092340 -0.143160 0.985382 135 110 84 255 4
0.001520 0.031312 -0.016257 -0.131870 -0.147879 0.980175 134 111 84 255 4
0.002531 0.031738 -0.016120 -0.175779 -0.144143 0.973819 135 109 83 255 4
0.003536 0.032638 -0.015681 -0.194413 -0.146190 0.969965 132 106 80 255 4
0.004541 0.033843 -0.015049 -0.218510 -0.172660 0.960438 131 106 80 255 4
0.005541 0.035996 -0.013814 -0.212491 -0.268050 0.939679 130 109 84 255 4
0.005629 0.178769 0.076778 -0.144237 -0.653772 0.742818 112 103 81 255 4
0.089248 0.072906 -0.001409 -0.629657 0.129398 -0.766021 97 89 69 255 3
0.090017 0.070771 -0.002865 -0.597625 0.104616 -0.794922 116 90 68 255 3
0.090825 0.069016 -0.004085 -0.564285 0.067552 -0.822812 116 90 67 255 3
0.091761 0.068375 -0.004615 -0.522976 0.037530 -0.851521 114 87 66 255 3
0.092698 0.067769 -0.005123 -0.479020 0.010329 -0.877743 117 88 68 255 3
0.093629 0.067127 -0.005653 -0.409746 -0.041744 -0.911244 118 87 68 255 3
0.094557 0.066484 -0.006183 -0.357317 -0.075209 -0.930950 117 87 67 255 3
0.095527 0.066189 -0.006498 -0.313191 -0.100716 -0.944334 117 86 67 255 3
0.096517 0.066069 -0.006705 -0.266360 -0.128846 -0.955223 116 86 67 255 3
0.097511 0.065983 -0.006890 -0.217233 -0.150224 -0.964491 116 86 66 255 3
0.098504 0.065897 -0.007075 -0.161217 -0.173460 -0.971556 115 85 66 255 3
0.099492 0.065776 -0.007282 -0.105233 -0.194087 -0.975324 115 85 66 255 3
0.100487 0.065724 -0.007446 -0.053504 -0.209159 -0.976417 114 83 64 255 3
0.101530 0.066022 -0.007394 -0.002529 -0.222954 -0.974826 115 84 64 255 3
0.102572 0.066320 -0.007342 0.053824 -0.241672 -0.968864 114 83 63 255 3
0.103605 0.066548 -0.007334 0.108721 -0.256548 -0.960397 115 84 64 255 3
0.104638 0.066776 -0.007325 0.153776 -0.269815 -0.950554 114 83 62 255 3
0.105666 0.066969 -0.007338 0.201360 -0.285592 -0.936958 113 82 62 255 3
0.106729 0.067407 -0.007200 0.238733 -0.300732 -0.923346 114 83 62 255 3
0.107813 0.067985 -0.006976 0.295814 -0.324705 -0.898365 114 84 62 255 3
0.108899 0.068563 -0.006751 0.340219 -0.347530 -0.873770 114 85 64 255 3
0.109980 0.069107 -0.006549 -0.388818 0.364320 0.846222 115 85 64 255 3
0.111062 0.069651 -0.006346 -0.437049 0.380836 0.814833 115 85 63 255 3
0.112160 0.070300 -0.006079 -0.476350 0.393425 0.786325 116 84 63 255 3
0.113298 0.071195 -0.005660 -0.510535 0.411076 0.755229 116 83 62 255 3
0.114432 0.072055 -0.005264 -0.558958 0.429440 0.709329 115 81 59 255 3
0.115563 0.072881 -0.004888 -0.604602 0.445007 0.660625 113 79 57 255 3
0.116696 0.073707 -0.004513 -0.629552 0.452659 0.631478 113 79 56 255 3
0.117864 0.074745 -0.004009 -0.663936 0.467813 0.583386 111 78 55 255 3
0.119062 0.075958 -0.003396 -0.711765 0.475111 0.517359 110 78 55 255 3
0.120263 0.077173 -0.002784 -0.741067 0.493926 0.454814 107 76 54 255 3
0.121456 0.078317 -0.002214 -0.758846 0.509468 0.405703 103 73 52 255 3
0.122745 0.080025 -0.001300 -0.770951 0.549778 0.321526 97 68 47 255 3
0.123979 0.081382 -0.000601 -0.718279 0.630284 0.294648 94 64 45 255 3
0.125246 0.082916 0.000205 0.563519 -0.765201 -0.311312 84 53 36 255 3
0.126506 0.084381 0.000969 0.075413 -0.953304 -0.292444 76 48 34 255 3
0.127457 0.084014 0.000611 -0.039943 -0.895806 -0.442647 85 59 42 255 3
0.128407 0.083648 0.000253 -0.200547 -0.875429 -0.439778 93 64 46 255 3
0.129355 0.083280 -0.000104 -0.229997 -0.825706 -0.515084 97 69 50 255 3
0.130362 0.083265 -0.000247 -0.187644 -0.808457 -0.557842 101 74 56 255 3
0.131375 0.083285 -0.000367 -0.109854 -0.798423 -0.591991 104 77 58 255 3
0.132375 0.083235 -0.000531 -0.011448 -0.769129 -0.638991 106 80 60 255 3
0.133380 0.083219 -0.000673 0.067121 -0.743290 -0.665594 108 81 61 255 3
0.134442 0.083521 -0.000621 0.118992 -0.718546 -0.685224 111 82 61 255 3
0.135517 0.083894 -0.000526 0.139138 -0.695892 -0.704539 116 84 63 255 3
0.136586 0.084232 -0.000453 0.171439 -0.683764 -0.709278 113 82 62 255 3
-0.129739 0.019263 -0.005359 -0.868244 -0.177769 -0.463195 87 72 55 255 1
-0.127902 0.015943 -0.007715 -0.824200 -0.232688 -0.516285 94 70 51 255 1
-0.126457 0.014332 -0.008931 -0.793256 -0.266993 -0.547229 96 69 49 255 1
-0.125033 0.012783 -0.010105 -0.735829 -0.322748 -0.595306 97 69 48 255 1
-0.123664 0.011460 -0.011128 -0.709866 -0.357000 -0.607159 100 70 47 255 1
-0.122413 0.010652 -0.011808 -0.682512 -0.387250 -0.619850 102 71 49 255 1
-0.121131 0.009682 -0.012595 -0.635964 -0.419487 -0.647750 100 70 46 255 1
-0.119832 0.008614 -0.013446 -0.580133 -0.454328 -0.676042 102 71 48 255 1
-0.118633 0.007998 -0.013996 -0.526826 -0.477047 -0.703478 100 72 49 255 1
-0.117471 0.007543 -0.014439 -0.475806 -0.485114 -0.733671 99 73 50 255 1
-0.116318 0.007120 -0.014861 -0.416561 -0.499759 -0.759420 99 73 50 255 1
-0.115188 0.006794 -0.015218 -0.373215 -0.500064 -0.781439 101 75 53 255 1
-0.114052 0.006435 -0.015596 -0.311170 -0.495268 -0.811100 103 76 53 255 1
-0.112958 0.006270 -0.015846 -0.253642 -0.499151 -0.828561 104 77 54 255 1
-0.111885 0.006202 -0.016031 -0.214434 -0.504531 -0.836341 106 78 56 255 1
-0.110813 0.006133 -0.016216 -0.180071 -0.499859 -0.847181 108 80 57 255 1
-0.109742 0.006065 -0.016401 -0.155138 -0.502482 -0.850555 111 82 59 255 1
-0.108666 0.005964 -0.016607 -0.122220 -0.502971 -0.855618 113 83 60 255 1
-0.107603 0.005927 -0.016771 -0.086031 -0.500044 -0.861716 116 86 62 255 1
-0.106567 0.006020 -0.016849 -0.044818 -0.490166 -0.870476 118 87 62 255 1
-0.105536 0.006146 -0.016905 -0.003975 -0.483100 -0.875556 118 88 63 255 1
-0.104513 0.006304 -0.016939 0.032690 -0.474053 -0.879889 119 88 64 255 1
-0.103489 0.006462 -0.016974 0.064351 -0.464151 -0.883415 120 89 64 255 1
-0.102466 0.006620 -0.017008 0.086278 -0.454808 -0.886400 119 90 64 255 1
-0.101449 0.006811 -0.017021 0.112963 -0.445505 -0.888124 119 90 64 255 1
-0.100444 0.007066 -0.016991 0.140038 -0.436414 -0.888781 120 92 66 255 1
-0.099451 0.007387 -0.016918 0.164756 -0.427638 -0.888809 121 92 66 255 1
-0.098452 0.007675 -0.016867 0.185466 -0.418803 -0.888935 123 94 67 255 1
-0.097458 0.007996 -0.016794 0.196021 -0.414204 -0.888825 123 94 67 255 1
-0.096469 0.008350 -0.016699 0.196506 -0.411490 -0.889978 124 94 67 255 1
-0.095475 0.008671 -0.016626 0.187614 -0.413414 -0.891005 123 94 67 255 1
-0.094485 0.009025 -0.016532 0.177046 -0.418646 -0.890725 123 95 68 255 1
-0.093479 0.009280 -0.016502 0.164818 -0.428188 -0.888532 122 94 68 255 1
-0.092472 0.009536 -0.016472 0.151493 -0.440503 -0.884877 122 94 68 255 1
-0.091471 0.009825 -0.016420 0.144412 -0.453506 -0.879475 124 95 69 255 1
-0.090465 0.010081 -0.016390 0.149423 -0.462948 -0.873700 126 98 72 255 1
-0.089447 0.010272 -0.016403 0.159182 -0.471934 -0.867145 126 98 72 255 1
-0.088429 0.010462 -0.016416 0.169276 -0.479080 -0.861295 127 99 73 255 1
-0.087428 0.010751 -0.016365 0.181551 -0.483765 -0.856161 127 99 73 255 1
-0.086436 0.011105 -0.016270 0.194478 -0.486661 -0.851668 127 100 74 255 1
-0.085449 0.011492 -0.016154 0.206358 -0.488087 -0.848049 127 101 75 255 1
-0.084442 0.011748 -0.016124 0.215459 -0.490337 -0.844480 128 102 76 255 1
-0.083444 0.012070 -0.016051 0.223171 -0.497568 -0.838225 128 102 76 255 1
-0.082446 0.012392 -0.015978 0.235708 -0.498718 -0.834100 126 100 75 255 1
-0.081448 0.012714 -0.015905 0.262296 -0.493426 -0.829296 128 101 75 255 1
-0.080459 0.013101 -0.015789 0.296336 -0.485812 -0.822296 130 102 76 255 1
-0.079464 0.013456 -0.015694 0.330813 -0.479396 -0.812861 131 102 77 255 1
-0.078489 0.013942 -0.015514 0.366984 -0.455579 -0.811030 133 104 78 255 1
-0.077517 0.014462 -0.015311 0.414779 -0.424477 -0.804847 134 105 80 255 1
-0.076553 0.015047 -0.015066 -0.463779 0.382614 0.799072 134 105 80 255 1
-0.075607 0.015764 -0.014735 -0.513959 0.342707 0.786383 133 104 79 255 1
-0.074654 0.016448 -0.014425 -0.548000 0.308752 0.777411 134 105 80 255 1
-0.073736 0.017396 -0.013943 -0.587078 0.266973 0.764241 134 105 80 255 1
-0.072816 0.018344 -0.013461 -0.607368 0.241311 0.756884 136 106 81 255 1
-0.071888 0.019259 -0.013001 -0.617621 0.219726 0.755159 136 106 81 255 1
-0.070972 0.020275 -0.012476 -0.608929 0.219788 0.762167 137 108 82 255 1
-0.070048 0.021257 -0.011972 -0.592299 0.226092 0.773346 136 108 82 255 1
-0.069110 0.022142 -0.011533 -0.571458 0.236787 0.785728 135 108 82 255 1
-0.068152 0.022895 -0.011180 -0.553241 0.250718 0.794396 133 108 81 255 1
-0.067189 0.023615 -0.010849 -0.550317 0.257931 0.794118 132 107 81 255 1
-0.066236 0.024435 -0.010453 -0.556888 0.258824 0.789231 130 105 80 255 1
-0.065282 0.025255 -0.010057 -0.579737 0.251279 0.775089 128 102 76 255 1
-0.064329 0.026109 -0.009639 -0.608339 0.242551 0.755707 126 100 74 255 1
-0.063394 0.027128 -0.009114 -0.644466 0.225344 0.730673 124 97 72 255 1
-0.062456 0.028148 -0.008589 -0.684571 0.199911 0.700998 122 95 70 255 1
-0.061530 0.029300 -0.007977 -0.714089 0.181137 0.676215 120 92 68 255 1
-0.060624 0.030651 -0.007237 -0.783040 0.126601 0.608950 119 90 66 255 1
-0.059759 0.032400 -0.006238 -0.820120 0.097569 0.563812 118 90 66 255 1
-0.059026 0.035407 -0.004421 -0.842778 0.067190 0.534052 118 88 63 255 1
-0.041428 0.054021 0.005104 -0.761200 0.166659 -0.626737 120 98 73 255 2
-0.040068 0.050461 0.002658 -0.749948 0.141873 -0.646103 123 97 71 255 2
-0.038772 0.047597 0.000664 -0.724153 0.130170 -0.677243 126 96 71 255 2
-0.037522 0.045197 -0.001028 -0.689575 0.122099 -0.713847 126 98 73 255 2
-0.036317 0.043296 -0.002398 -0.663200 0.115084 -0.739541 129 101 76 255 2
-0.035104 0.041193 -0.003897 -0.581673 0.119779 -0.804555 132 103 79 255 4
-0.033978 0.040222 -0.004663 -0.541133 0.137545 -0.829612 131 102 78 255 4
-0.032852 0.039184 -0.005473 -0.476279 0.142219 -0.867716 134 105 80 255 4
-0.031736 0.038244 -0.006218 -0.440993 0.151375 -0.884653 136 107 81 255 4
-0.030643 0.037605 -0.006770 -0.413278 0.159912 -0.896454 136 108 81 255 4
-0.029538 0.036731 -0.007472 -0.383870 0.167113 -0.908139 135 108 82 255 4
-0.028452 0.036090 -0.008023 -0.352983 0.174246 -0.919261 135 109 82 255 4
-0.027388 0.035783 -0.008359 -0.333270 0.184349 -0.924633 136 109 82 255 4
-0.026320 0.035375 -0.008760 -0.318098 0.187405 -0.929351 136 109 82 255 4
-0.025248 0.034867 -0.009225 -0.316969 0.194648 -0.928247 138 110 82 255 4
-0.024179 0.034358 -0.009690 -0.318841 0.199006 -0.926681 139 110 83 255 4
-0.023110 0.033814 -0.010177 -0.327714 0.200576 -0.923240 140 110 83 255 4
-0.022041 0.033204 -0.010707 -0.335055 0.201104 -0.920486 140 110 83 255 4
-0.020969 0.032492 -0.011302 -0.341281 0.199406 -0.918567 139 110 82 255 4
-0.019900 0.031780 -0.011896 -0.340262 0.189158 -0.921108 139 112 83 255 4
-0.018837 0.031134 -0.012448 -0.337665 0.178961 -0.924097 139 113 84 255 4
-0.017781 0.030588 -0.012935 -0.332076 0.166328 -0.928472 136 111 83 255 4
-0.016733 0.030142 -0.013357 -0.321724 0.149659 -0.934931 136 111 84 255 4
-0.015685 0.029662 -0.013801 -0.309924 0.138661 -0.940596 135 110 84 255 4
-0.014641 0.029215 -0.014224 -0.296484 0.122013 -0.947212 137 111 84 255 4
-0.013600 0.028801 -0.014624 -0.278028 0.110030 -0.954250 138 111 85 255 4
-0.012563 0.028420 -0.015004 -0.257911 0.100091 -0.960970 138 111 84 255 4
-0.011533 0.028207 -0.015275 -0.242518 0.096456 -0.965340 137 111 84 255 4
-0.010504 0.027960 -0.015569 -0.222679 0.094770 -0.970275 136 110 83 255 4
-0.009478 0.027780 -0.015819 -0.206526 0.094422 -0.973875 137 111 85 255 4
-0.008459 0.027768 -0.015961 -0.181515 0.101116 -0.978176 139 114 87 255 4
-0.007441 0.027755 -0.016103 -0.152470 0.106000 -0.982607 140 116 89 255 4
-0.006425 0.027810 -0.016203 -0.124986 0.111423 -0.985882 142 118 92 255 4
-0.005405 0.027663 -0.016431 0.098064 -0.101473 0.989993 143 119 93 255 4
-0.004381 0.027313 -0.016789 0.063200 -0.086571 0.994239 144 120 94 255 4
-0.003370 0.027502 -0.016802 0.031814 -0.082084 0.996118 144 120 94 255 4
-0.002362 0.027758 -0.016772 0.003067 -0.085109 0.996367 142 118 92 255 4
-0.001354 0.028082 -0.016699 -0.041260 -0.080290 0.995917 138 114 88 255 4
-0.000345 0.028339 -0.016669 -0.077649 -0.078714 0.993869 138 115 88 255 4
0.000663 0.028629 -0.016617 -0.119663 -0.071805 0.990215 137 113 87 255 4
0.001670 0.029088 -0.016458 -0.155194 -0.090195 0.983758 137 113 87 255 4
0.002674 0.029784 -0.016148 -0.178722 -0.098018 0.979005 139 114 88 255 4
0.003677 0.030682 -0.015708 -0.202127 -0.117505 0.972285 137 111 84 255 4
0.004683 0.031582 -0.015269 -0.222735 -0.132337 0.965855 135 110 82 255 4
0.005691 0.032481 -0.014829 -0.241629 -0.154968 0.957914 136 110 82 255 4
0.006700 0.033449 -0.014346 -0.260795 -0.174349 0.949520 135 109 83 255 4
0.007708 0.035162 -0.013389 -0.255142 -0.192295 0.947589 138 113 87 255 4
0.008721 0.036875 -0.012432 -0.247439 -0.182649 0.951532 129 111 88 255 4
0.089062 0.069570 -0.002230 -0.634048 0.089937 -0.768046 117 93 71 255 3
0.089872 0.067818 -0.003452 -0.592622 0.054315 -0.803647 121 92 69 255 3
0.090775 0.066900 -0.004156 -0.552043 0.008605 -0.833771 116 86 65 255 3
0.091713 0.066294 -0.004665 -0.495515 -0.016534 -0.868442 116 87 66 255 3
0.092648 0.065687 -0.005175 -0.419279 -0.068040 -0.905304 118 89 69 255 3
0.093585 0.065115 -0.005663 -0.377455 -0.094724 -0.921171 116 86 67 255 3
0.094542 0.064717 -0.006043 -0.324403 -0.127139 -0.937336 116 86 68 255 3
0.095532 0.064596 -0.006250 -0.277555 -0.149728 -0.948970 117 87 68 255 3
0.096521 0.064476 -0.006457 -0.222358 -0.180052 -0.958195 116 86 67 255 3
0.097509 0.064355 -0.006665 -0.178833 -0.201974 -0.962925 115 86 67 255 3
0.098500 0.064269 -0.006850 -0.131131 -0.221961 -0.966198 115 85 67 255 3
0.099490 0.064183 -0.007036 -0.081721 -0.235429 -0.968450 115 85 66 255 3
0.100508 0.064306 -0.007092 -0.024998 -0.243935 -0.969469 114 83 63 255 3
0.101549 0.064603 -0.007040 0.024189 -0.254576 -0.966750 115 84 64 255 3
0.102585 0.064866 -0.007010 0.081420 -0.262868 -0.961390 114 83 62 255 3
0.103627 0.065163 -0.006958 0.131714 -0.272302 -0.953154 114 82 61 255 3
0.104659 0.065391 -0.006950 0.185326 -0.282248 -0.941270 114 83 62 255 3
0.105685 0.065584 -0.006963 0.229092 -0.300167 -0.925968 114 83 62 255 3
0.106778 0.066231 -0.006695 0.277547 -0.316856 -0.906957 115 84 63 255 3
0.107856 0.066774 -0.006492 0.322731 -0.335514 -0.885028 114 84 63 255 3
0.108940 0.067352 -0.006267 -0.371598 0.354175 0.858181 114 84 63 255 3
0.110025 0.067930 -0.006042 -0.422516 0.366923 0.828763 115 85 64 255 3
0.111107 0.068473 -0.005839 -0.465730 0.384586 0.796988 115 84 63 255 3
0.112237 0.069332 -0.005442 -0.499659 0.394871 0.770985 115 84 63 255 3
0.113374 0.070226 -0.005023 -0.544470 0.412382 0.730406 115 82 61 255 3
0.114513 0.071121 -0.004603 -0.599804 0.430122 0.674708 115 81 59 255 3
0.115643 0.071946 -0.004228 -0.634399 0.439279 0.636060 114 80 57 255 3
0.116792 0.072877 -0.003787 -0.653754 0.453284 0.605921 111 78 56 255 3
0.117988 0.074089 -0.003173 -0.698853 0.463338 0.544906 110 78 55 255 3
0.119192 0.075337 -0.002538 -0.735334 0.471908 0.486402 108 77 55 255 3
0.120388 0.076515 -0.001946 -0.761411 0.490784 0.423538 104 74 52 255 3
0.121638 0.078010 -0.001159 -0.794099 0.500300 0.345118 100 70 50 255 3
0.122945 0.079822 -0.000178 -0.785690 0.545298 0.292132 93 65 46 255 3
0.124186 0.081214 0.000544 -0.695796 0.648758 0.308191 86 58 40 255 3
0.125708 0.084259 0.002281 0.225484 -0.955061 -0.192393 79 49 35 255 3
0.126661 0.083894 0.001923 -0.180522 -0.952403 -0.245641 79 52 38 255 3
0.127613 0.083528 0.001564 -0.237265 -0.889627 -0.390216 90 61 44 255 3
0.128562 0.083162 0.001206 -0.303294 -0.860154 -0.410059 93 63 45 255 3
0.129504 0.082760 0.000825 -0.263853 -0.828247 -0.494356 95 67 49 255 3
0.130481 0.082569 0.000575 -0.215835 -0.817560 -0.533864 99 72 54 255 3
0.131494 0.082589 0.000454 -0.147820 -0.807783 -0.570645 103 76 57 255 3
0.132506 0.082609 0.000333 -0.052982 -0.782137 -0.620850 105 78 59 255 3
0.133511 0.082594 0.000191 0.035551 -0.754100 -0.655797 109 81 60 255 3
0.134548 0.082755 0.000156 0.083965 -0.736395 -0.671321 111 82 61 255 3
0.135616 0.083092 0.000230 0.104386 -0.720481 -0.685573 114 85 63 255 3
0.136685 0.083430 0.000304 0.145298 -0.698602 -0.700603 111 83 63 255 3
-0.129296 0.017257 -0.005428 -0.851300 -0.211606 -0.480116 88 69 52 255 1
-0.127541 0.014295 -0.007552 -0.806102 -0.264402 -0.529426 95 70 51 255 1
-0.126149 0.012911 -0.008620 -0.772188 -0.301228 -0.559453 95 69 49 255 1
-0.124734 0.011396 -0.009775 -0.726784 -0.346637 -0.592982 95 68 48 255 1
-0.123409 0.010267 -0.010671 -0.699315 -0.380496 -0.605130 99 70 48 255 1
-0.122159 0.009460 -0.011352 -0.666019 -0.414445 -0.620204 99 69 46 255 1
-0.120906 0.008620 -0.012054 -0.629763 -0.441455 -0.639152 100 69 47 255 1
-0.119615 0.007586 -0.012886 -0.575154 -0.478639 -0.663402 101 71 48 255 1
-0.118431 0.007035 -0.013395 -0.532158 -0.494652 -0.687115 98 70 47 255 1
-0.117269 0.006581 -0.013838 -0.478555 -0.504622 -0.718569 98 71 49 255 1
-0.116111 0.006126 -0.014282 -0.423540 -0.515178 -0.745121 97 72 50 255 1
-0.114967 0.005735 -0.014683 -0.374194 -0.518460 -0.768881 98 73 50 255 1
-0.113833 0.005377 -0.015062 -0.310488 -0.514195 -0.799500 102 76 53 255 1
-0.112753 0.005277 -0.015269 -0.250531 -0.517541 -0.818160 104 77 54 255 1
-0.111681 0.005209 -0.015455 -0.209394 -0.516607 -0.830223 106 77 55 255 1
-0.110616 0.005173 -0.015619 -0.176337 -0.517073 -0.837580 108 79 56 255 1
-0.109539 0.005072 -0.015826 -0.152404 -0.518130 -0.841614 111 81 57 255 1
-0.108470 0.005004 -0.016011 -0.119210 -0.520423 -0.845546 113 82 58 255 1
-0.107401 0.004935 -0.016197 -0.081681 -0.519121 -0.850789 115 83 60 255 1
-0.106365 0.005028 -0.016274 -0.042295 -0.511728 -0.858106 116 85 61 255 1
-0.105336 0.005154 -0.016331 -0.003264 -0.506322 -0.862338 116 86 62 255 1
-0.104313 0.005312 -0.016365 0.032680 -0.499788 -0.865531 116 86 62 255 1
-0.103290 0.005470 -0.016400 0.063513 -0.490566 -0.869086 118 88 63 255 1
-0.102262 0.005595 -0.016456 0.086390 -0.483331 -0.871165 118 88 64 255 1
-0.101245 0.005786 -0.016469 0.115377 -0.474076 -0.872892 118 89 63 255 1
-0.100247 0.006073 -0.016417 0.142998 -0.464745 -0.873821 120 91 65 255 1
-0.099249 0.006361 -0.016366 0.167847 -0.455677 -0.874177 121 91 65 255 1
-0.098250 0.006649 -0.016314 0.187311 -0.447478 -0.874459 122 93 67 255 1
-0.097257 0.006970 -0.016241 0.198898 -0.439671 -0.875859 123 94 68 255 1
-0.096263 0.007291 -0.016168 0.200881 -0.436481 -0.877001 123 94 67 255 1
-0.095269 0.007612 -0.016095 0.199442 -0.436460 -0.877340 124 94 67 255 1
-0.094275 0.007932 -0.016022 0.192402 -0.442870 -0.875699 122 93 66 255 1
-0.093286 0.008286 -0.015927 0.183529 -0.453634 -0.872086 122 93 67 255 1
-0.092286 0.008574 -0.015875 0.174571 -0.467877 -0.866381 121 92 66 255 1
-0.091280 0.008830 -0.015845 0.170217 -0.483214 -0.858796 120 91 65 255 1
-0.090274 0.009086 -0.015815 0.170608 -0.497630 -0.850445 122 92 66 255 1
-0.089267 0.009342 -0.015785 0.180778 -0.505713 -0.843548 122 94 67 255 1
-0.088266 0.009630 -0.015734 0.190878 -0.514216 -0.836150 123 94 68 255 1
-0.087265 0.009919 -0.015682 0.200925 -0.521258 -0.829409 124 95 69 255 1
-0.086263 0.010208 -0.015631 0.211082 -0.525643 -0.824102 125 97 71 255 1
-0.085267 0.010529 -0.015557 0.221549 -0.529921 -0.818596 124 97 71 255 1
-0.084265 0.010818 -0.015506 0.229311 -0.531792 -0.815239 124 97 72 255 1
-0.083268 0.011139 -0.015433 0.237724 -0.533082 -0.811979 124 97 72 255 1
-0.082270 0.011461 -0.015359 0.252558 -0.533265 -0.807368 123 96 71 255 1
-0.081277 0.011815 -0.015265 0.275651 -0.529580 -0.802223 124 97 71 255 1
-0.080284 0.012170 -0.015170 0.304180 -0.521409 -0.797250 128 99 73 255 1
-0.079290 0.012524 -0.015075 0.335849 -0.506189 -0.794341 131 101 75 255 1
-0.078315 0.013010 -0.014894 0.366365 -0.492109 -0.789687 132 103 77 255 1
-0.077343 0.013529 -0.014692 0.410608 -0.461815 -0.786211 134 104 79 255 1
-0.076371 0.014048 -0.014489 -0.458535 0.423695 0.781171 132 103 78 255 1
-0.075425 0.014764 -0.014157 -0.503409 0.374492 0.778676 133 104 79 255 1
-0.074478 0.015481 -0.013825 -0.542824 0.332118 0.771388 134 104 79 255 1
-0.073542 0.016296 -0.013428 -0.573082 0.293686 0.765066 134 105 80 255 1
-0.072622 0.017243 -0.012945 -0.602128 0.254557 0.756731 135 107 81 255 1
-0.071696 0.018158 -0.012484 -0.613604 0.231324 0.754969 136 107 81 255 1
-0.070775 0.019139 -0.011979 -0.612069 0.224130 0.758378 136 107 81 255 1
-0.069848 0.020088 -0.011496 -0.598541 0.231580 0.766890 136 108 81 255 1
-0.068915 0.021005 -0.011035 -0.582368 0.242522 0.775906 135 107 81 255 1
-0.067958 0.021757 -0.010681 -0.566781 0.258081 0.782403 134 107 80 255 1
-0.067004 0.022543 -0.010306 -0.562873 0.269451 0.781390 131 105 79 255 1
-0.066052 0.023362 -0.009909 -0.570783 0.273641 0.774162 129 103 77 255 1
-0.065098 0.024181 -0.009512 -0.593568 0.268903 0.758530 127 101 75 255 1
-0.064149 0.025067 -0.009072 -0.622734 0.259738 0.738064 124 98 72 255 1
-0.063211 0.026052 -0.008568 -0.656272 0.244901 0.713674 122 96 70 255 1
-0.062274 0.027071 -0.008041 -0.694307 0.220786 0.684976 120 93 69 255 1
-0.061349 0.028223 -0.007429 -0.722029 0.204041 0.661091 119 92 67 255 1
-0.060432 0.029474 -0.006752 -0.792340 0.143059 0.593069 120 92 67 255 1
-0.059571 0.031254 -0.005729 -0.823996 0.112620 0.555290 115 89 64 255 1
-0.058831 0.034191 -0.003951 -0.868221 0.068550 0.491419 112 85 62 255 1
-0.042474 0.054547 0.006879 -0.762335 0.159780 -0.627149 116 93 69 255 2
-0.041063 0.050460 0.004082 -0.797607 0.097692 -0.595213 124 96 70 255 2
-0.039734 0.047235 0.001847 -0.763357 0.094935 -0.638963 123 96 71 255 2
-0.038461 0.044606 -0.000000 -0.734915 0.094247 -0.671578 123 95 70 255 2
-0.037208 0.042108 -0.001761 -0.678552 0.109295 -0.726376 125 97 73 255 4
-0.035995 0.040042 -0.003241 -0.631567 0.125372 -0.765117 127 100 76 255 4
-0.034830 0.038539 -0.004355 -0.582204 0.125875 -0.803240 130 102 78 255 4
-0.033691 0.037336 -0.005274 -0.529351 0.139091 -0.836924 135 105 79 255 4
-0.032568 0.036298 -0.006086 -0.484872 0.150664 -0.861510 138 108 81 255 4
-0.031465 0.035492 -0.006746 -0.450094 0.154816 -0.879459 138 108 81 255 4
-0.030359 0.034586 -0.007471 -0.409185 0.164747 -0.897455 137 108 81 255 4
-0.029256 0.033679 -0.008197 -0.376280 0.165103 -0.911677 135 108 81 255 4
-0.028190 0.033305 -0.008576 -0.353047 0.167862 -0.920424 134 108 81 255 4
-0.027124 0.032898 -0.008978 -0.345062 0.172614 -0.922571 135 108 82 255 4
-0.026056 0.032423 -0.009423 -0.336936 0.171023 -0.925865 137 110 83 255 4
-0.024988 0.031914 -0.009889 -0.337124 0.173478 -0.925339 137 109 82 255 4
-0.023921 0.031372 -0.010377 -0.340930 0.173351 -0.923967 138 110 83 255 4
-0.022847 0.030661 -0.010973 -0.347083 0.169899 -0.922316 140 112 84 255 4
-0.021777 0.029950 -0.011569 -0.346621 0.165390 -0.923309 139 111 84 255 4
-0.020714 0.029339 -0.012100 -0.344288 0.156086 -0.925799 138 111 84 255 4
-0.019656 0.028760 -0.012609 -0.338469 0.141841 -0.930226 137 111 83 255 4
-0.018605 0.028281 -0.013054 -0.324904 0.124509 -0.937515 135 110 83 255 4
-0.017561 0.027903 -0.013434 -0.313015 0.104930 -0.943934 136 111 84 255 4
-0.016520 0.027557 -0.013793 -0.305448 0.089685 -0.947976 138 113 86 255 4
-0.015480 0.027178 -0.014173 -0.295426 0.074268 -0.952475 136 110 84 255 4
-0.014442 0.026798 -0.014553 -0.286850 0.065892 -0.955707 136 110 83 255 4
-0.013408 0.026485 -0.014890 -0.276365 0.048819 -0.959812 137 110 84 255 4
-0.012376 0.026171 -0.015227 -0.262525 0.040545 -0.964073 136 110 84 255 4
-0.011348 0.025924 -0.015521 -0.244584 0.035987 -0.968960 136 110 84 255 4
-0.010322 0.025677 -0.015814 -0.231700 0.031172 -0.972288 138 112 85 255 4
-0.009299 0.025497 -0.016065 -0.211733 0.031759 -0.976811 138 113 86 255 4
-0.008279 0.025383 -0.016273 -0.184807 0.022390 -0.982520 140 115 89 255 4
-0.007262 0.025303 -0.016458 -0.151475 0.020613 -0.988246 138 115 89 255 4
-0.006244 0.025156 -0.016687 -0.123105 0.016151 -0.992262 137 115 90 255 4
-0.005227 0.025042 -0.016895 -0.086307 0.003519 -0.996262 138 116 91 255 4
-0.004218 0.025163 -0.016951 -0.048120 0.001076 -0.998841 136 115 89 255 4
-0.003211 0.025385 -0.016943 -0.000169 -0.001338 0.999999 137 115 89 255 4
-0.002205 0.025641 -0.016913 -0.035529 -0.000934 0.999368 138 115 88 255 4
-0.001199 0.025930 -0.016861 -0.081736 -0.002222 0.996652 137 115 88 255 4
-0.000195 0.026321 -0.016745 -0.107963 -0.008459 0.994119 136 114 87 255 4
0.000806 0.026948 -0.016477 -0.138115 -0.019231 0.990229 136 113 87 255 4
0.001810 0.027508 -0.016253 -0.172549 -0.025624 0.984668 136 113 86 255 4
0.002814 0.028101 -0.016007 -0.204572 -0.034431 0.978246 138 115 87 255 4
0.003819 0.028662 -0.015782 -0.222478 -0.056337 0.973309 140 115 87 255 4
0.004823 0.029526 -0.015363 -0.237128 -0.076320 0.968476 140 114 86 255 4
0.005829 0.030289 -0.015009 -0.252121 -0.105319 0.961947 138 112 84 255 4
0.006838 0.031019 -0.014677 -0.256422 -0.127885 0.958067 135 110 82 255 4
0.007848 0.031750 -0.014344 -0.259066 -0.148218 0.954419 137 112 84 255 4
0.008860 0.032480 -0.014012 -0.265526 -0.175347 0.948024 141 113 84 255 4
0.009872 0.033651 -0.013398 -0.251024 -0.178586 0.951364 144 115 87 255 4
0.010888 0.035364 -0.012439 -0.233768 -0.176186 0.956196 144 116 89 255 4
0.011909 0.037010 -0.011524 -0.221498 -0.175760 0.959191 139 116 90 255 4
0.012929 0.037303 -0.011472 -0.217070 -0.176277 0.960108 119 105 81 255 4
0.014650 0.176261 0.077024 -0.157851 -0.650150 0.743228 111 101 79 255 4
0.088112 0.068405 -0.001574 -0.649584 0.068704 -0.757179 115 90 69 255 3
0.088936 0.066760 -0.002734 -0.620565 0.035194 -0.783365 116 89 67 255 3
0.089816 0.065634 -0.003569 -0.574067 -0.005217 -0.818791 116 87 66 255 3
0.090767 0.065134 -0.004014 -0.528020 -0.029741 -0.848711 117 86 63 255 3
0.091707 0.064563 -0.004503 -0.457832 -0.070542 -0.886236 118 87 66 255 3
0.092645 0.063992 -0.004992 -0.408809 -0.097128 -0.907437 117 87 68 255 3
0.093584 0.063455 -0.005460 -0.343315 -0.145400 -0.927897 117 87 68 255 3
0.094561 0.063230 -0.005732 -0.296679 -0.167111 -0.940242 116 87 68 255 3
0.095567 0.063249 -0.005853 -0.248919 -0.193649 -0.948967 115 86 67 255 3
0.096555 0.063129 -0.006061 -0.203848 -0.217982 -0.954426 115 86 67 255 3
0.097542 0.063008 -0.006269 -0.158627 -0.231998 -0.959695 114 85 67 255 3
0.098527 0.062887 -0.006477 -0.107431 -0.256757 -0.960487 115 85 66 255 3
0.099512 0.062766 -0.006684 -0.058906 -0.267975 -0.961623 116 85 65 255 3
0.100537 0.062959 -0.006697 -0.011140 -0.275422 -0.961259 115 85 64 255 3
0.101568 0.063186 -0.006689 0.043228 -0.279945 -0.959042 115 84 63 255 3
0.102603 0.063448 -0.006658 0.105383 -0.290090 -0.951179 115 82 62 255 3
0.103643 0.063745 -0.006607 0.159349 -0.292473 -0.942904 114 82 61 255 3
0.104679 0.064008 -0.006576 0.203523 -0.299097 -0.932266 114 82 61 255 3
0.105724 0.064340 -0.006503 0.244699 -0.311308 -0.918265 115 84 62 255 3
0.106821 0.065022 -0.006213 0.304698 -0.325699 -0.895030 115 84 63 255 3
0.107903 0.065599 -0.005988 -0.351344 0.345074 0.870334 115 85 64 255 3
0.108987 0.066176 -0.005762 -0.406703 0.361315 0.839073 114 85 64 255 3
0.110071 0.066754 -0.005537 -0.453635 0.371802 0.809925 114 85 63 255 3
0.111173 0.067436 -0.005247 -0.492834 0.383285 0.781158 114 84 63 255 3
0.112307 0.068330 -0.004827 -0.530830 0.396583 0.748960 115 84 62 255 3
0.113444 0.069223 -0.004407 -0.581068 0.412732 0.701436 114 82 61 255 3
0.114588 0.070152 -0.003966 -0.628627 0.429072 0.648634 115 81 59 255 3
0.115724 0.071012 -0.003567 -0.646054 0.438482 0.624778 113 79 57 255 3
0.116916 0.072222 -0.002953 -0.687278 0.447729 0.572003 110 78 56 255 3
0.118112 0.073433 -0.002338 -0.730712 0.457565 0.506650 108 76 54 255 3
0.119316 0.074680 -0.001701 -0.764734 0.467436 0.443492 105 75 53 255 3
0.120529 0.075963 -0.001043 -0.790988 0.473270 0.387755 102 73 52 255 3
0.121826 0.077738 -0.000081 -0.809961 0.503895 0.300087 97 69 49 255 3
0.123145 0.079619 0.000945 -0.769554 0.561591 0.303977 89 62 44 255 3
0.124469 0.081501 0.001971 0.661601 -0.725155 -0.190880 83 56 40 255 3
0.125898 0.083982 0.003366 -0.223130 -0.967860 -0.116018 77 50 36 255 3
0.126798 0.083301 0.002812 -0.329000 -0.915587 -0.231214 80 54 38 255 3
0.127756 0.082971 0.002474 -0.346467 -0.888922 -0.299631 90 61 44 255 3
0.128712 0.082640 0.002136 -0.389782 -0.836462 -0.385228 93 63 45 255 3
0.129660 0.082274 0.001777 -0.318422 -0.825500 -0.466001 94 66 48 255 3
0.130606 0.081908 0.001418 -0.240284 -0.823546 -0.513845 97 70 52 255 3
0.131612 0.081893 0.001275 -0.174246 -0.819322 -0.546214 101 74 55 255 3
0.132624 0.081913 0.001154 -0.090403 -0.797827 -0.596070 103 76 56 255 3
0.133636 0.081933 0.001033 -0.003939 -0.770264 -0.637713 106 79 59 255 3
0.134653 0.081989 0.000933 0.047743 -0.753135 -0.656132 111 81 61 255 3
0.135708 0.082255 0.000964 0.069354 -0.739475 -0.669602 114 84 63 255 3
0.136776 0.082592 0.001038 0.099103 -0.727254 -0.679177 110 82 62 255 3
-0.131041 0.020078 -0.002121 -0.880471 -0.187394 -0.435494 80 72 55 255 1
-0.128846 0.015222 -0.005523 -0.839623 -0.237817 -0.488341 87 66 48 255 1
-0.127232 0.012874 -0.007241 -0.792814 -0.293736 -0.534009 92 67 48 255 1
-0.125841 0.011491 -0.008312 -0.753626 -0.331947 -0.567327 92 66 46 255 1
-0.124442 0.010042 -0.009426 -0.712974 -0.371837 -0.594479 93 67 47 255 1
-0.123154 0.009076 -0.010216 -0.686325 -0.401537 -0.606404 96 67 46 255 1
-0.121905 0.008270 -0.010898 -0.651886 -0.433230 -0.622379 96 67 45 255 1
-0.120660 0.007463 -0.011580 -0.614558 -0.462361 -0.639172 97 68 46 255 1
-0.119391 0.006526 -0.012349 -0.566783 -0.496509 -0.657447 98 69 46 255 1
-0.118228 0.006073 -0.012794 -0.526002 -0.509035 -0.681326 98 70 47 255 1
-0.117068 0.005619 -0.013238 -0.477100 -0.519220 -0.709075 97 70 48 255 1
-0.115910 0.005165 -0.013683 -0.425137 -0.527245 -0.735712 96 70 48 255 1
-0.114754 0.004710 -0.014128 -0.374512 -0.527286 -0.762699 97 72 50 255 1
-0.113620 0.004352 -0.014508 -0.309964 -0.526675 -0.791540 101 75 53 255 1
-0.112548 0.004284 -0.014694 -0.248630 -0.531212 -0.809936 103 76 54 255 1
-0.111476 0.004217 -0.014880 -0.205682 -0.531446 -0.821742 105 77 54 255 1
-0.110412 0.004181 -0.015044 -0.174299 -0.532807 -0.828092 107 78 55 255 1
-0.109342 0.004113 -0.015230 -0.148900 -0.533780 -0.832411 110 80 57 255 1
-0.108274 0.004044 -0.015416 -0.114493 -0.533282 -0.838154 111 81 57 255 1
-0.107206 0.003976 -0.015602 -0.077669 -0.531261 -0.843641 112 81 58 255 1
-0.106177 0.004101 -0.015658 -0.038562 -0.528368 -0.848139 114 83 60 255 1
-0.105142 0.004195 -0.015736 -0.000666 -0.524774 -0.851241 114 84 60 255 1
-0.104113 0.004320 -0.015792 0.033859 -0.518438 -0.854445 114 85 61 255 1
-0.103091 0.004478 -0.015827 0.063434 -0.511302 -0.857057 116 87 62 255 1
-0.102069 0.004636 -0.015862 0.087759 -0.505284 -0.858479 118 89 64 255 1
-0.101054 0.004826 -0.015875 0.117008 -0.497037 -0.859804 119 89 64 255 1
-0.100056 0.005114 -0.015823 0.144986 -0.487656 -0.860913 120 90 64 255 1
-0.099058 0.005402 -0.015772 0.170266 -0.479666 -0.860773 121 91 66 255 1
-0.098060 0.005689 -0.015720 0.189252 -0.471893 -0.861104 122 92 67 255 1
-0.097061 0.005977 -0.015668 0.200081 -0.464607 -0.862617 122 94 68 255 1
-0.096063 0.006265 -0.015617 0.205352 -0.460141 -0.863771 123 94 68 255 1
-0.095070 0.006586 -0.015543 0.207851 -0.460561 -0.862949 123 93 67 255 1
-0.094076 0.006906 -0.015470 0.208301 -0.463477 -0.861278 123 93 67 255 1
-0.093082 0.007227 -0.015397 0.202373 -0.473064 -0.857471 122 92 66 255 1
-0.092088 0.007548 -0.015323 0.199220 -0.485998 -0.850951 122 92 66 255 1
-0.091094 0.007869 -0.015250 0.195884 -0.501410 -0.842744 120 90 65 255 1
-0.090094 0.008157 -0.015198 0.195422 -0.517543 -0.833042 120 91 65 255 1
-0.089093 0.008445 -0.015147 0.199512 -0.530948 -0.823583 121 93 66 255 1
