ply
format ascii 1.0
comment Created by labeled_geometry.py
element vertex 646
property float x
property float y
property float z
property float nx
property float ny
property float nz
property uchar red
property uchar green
property uchar blue
property uchar alpha
property uchar label
end_header
-0.362145 -0.270757 0.007144 -0.435955 0.212594 -0.874498 112 83 60 255 3
-0.362379 -0.274679 0.005879 -0.467136 0.134560 -0.873887 109 80 58 255 3
-0.362029 -0.278625 0.005662 -0.499339 0.045511 -0.865210 108 79 57 255 3
-0.361680 -0.282571 0.005446 -0.531429 -0.031299 -0.846524 107 77 56 255 3
-0.361331 -0.286516 0.005230 -0.571489 -0.138518 -0.808834 106 77 56 255 3
-0.360470 -0.290490 0.005932 -0.591797 -0.236880 -0.770496 104 75 55 255 3
-0.359683 -0.294461 0.006502 -0.613170 -0.304398 -0.728947 102 73 53 255 3
-0.358458 -0.298462 0.007859 -0.626651 -0.427001 -0.651904 101 71 52 255 3
-0.357012 -0.302482 0.009609 -0.631375 -0.524655 -0.571054 99 70 50 255 3
-0.354982 -0.306547 0.012408 -0.628592 -0.611915 -0.480034 94 66 48 255 3
-0.351782 -0.310704 0.017303 -0.610391 -0.669846 -0.422764 99 68 51 255 3
-0.206418 -0.325281 0.277132 -0.064744 -0.959479 -0.274242 82 71 54 255 3
-0.418543 0.275925 0.030733 -0.699188 0.533573 -0.475853 87 69 51 255 3
-0.422371 0.270441 0.022605 -0.705533 0.465864 -0.534035 89 64 47 255 3
-0.423761 0.265846 0.019091 -0.696753 0.411554 -0.587501 92 67 48 255 3
-0.424524 0.261481 0.016765 -0.661621 0.292449 -0.690457 99 71 51 255 3
-0.424870 0.257270 0.015230 -0.620496 0.181370 -0.762948 105 74 53 255 3
-0.424797 0.253207 0.014486 -0.577778 0.090872 -0.811120 107 76 55 255 3
-0.424585 0.249194 0.014005 -0.525872 -0.000025 -0.850564 112 80 58 255 3
-0.424024 0.245301 0.014184 -0.469617 -0.105852 -0.876502 113 82 60 255 3
-0.423463 0.241407 0.014363 -0.416129 -0.172254 -0.892841 115 85 62 255 3
-0.422483 0.237652 0.015333 -0.368936 -0.246960 -0.896045 116 87 64 255 3
-0.421502 0.233893 0.016303 -0.329040 -0.305007 -0.893702 115 88 64 255 3
-0.420590 0.230108 0.017140 -0.299639 -0.349454 -0.887749 119 90 67 255 3
-0.419399 0.226411 0.018505 -0.275099 -0.385750 -0.880635 120 91 67 255 3
-0.418207 0.222710 0.019870 -0.251142 -0.418008 -0.873039 120 91 67 255 3
-0.417015 0.219004 0.021235 -0.220827 -0.457143 -0.861543 118 90 65 255 3
-0.415612 0.215359 0.022995 -0.188401 -0.490434 -0.850870 118 89 64 255 3
-0.414139 0.211731 0.024887 -0.136517 -0.554597 -0.820844 116 86 62 255 3
-0.412595 0.208118 0.026910 -0.088921 -0.600736 -0.794487 114 82 58 255 3
-0.410559 0.204648 0.029856 -0.080720 -0.616458 -0.783239 107 77 53 255 3
-0.408102 0.201297 0.033592 -0.046912 -0.643478 -0.764026 93 73 54 255 3
-0.359106 -0.227793 0.030003 -0.173508 0.636762 -0.751285 98 70 52 255 3
-0.360637 -0.231745 0.026373 -0.215857 0.601743 -0.768967 104 74 53 255 3
-0.361734 -0.235694 0.023530 -0.226108 0.578427 -0.783771 109 78 56 255 3
-0.362470 -0.239642 0.021344 -0.267187 0.522131 -0.809932 111 81 58 255 3
-0.363134 -0.243585 0.019289 -0.298892 0.463975 -0.833901 113 84 60 255 3
-0.363726 -0.247524 0.017366 -0.317373 0.434641 -0.842829 114 85 61 255 3
-0.364173 -0.251461 0.015705 -0.335406 0.408009 -0.849136 114 86 61 255 3
-0.364621 -0.255394 0.014045 -0.353119 0.379107 -0.855327 115 88 63 255 3
-0.365069 -0.259321 0.012384 -0.371002 0.349513 -0.860348 113 86 62 255 3
-0.365300 -0.263252 0.011118 -0.394326 0.311238 -0.864661 112 85 61 255 3
-0.365531 -0.267179 0.009851 -0.418219 0.247745 -0.873908 112 84 60 255 3
-0.365690 -0.271105 0.008716 -0.446207 0.179458 -0.876752 111 83 60 255 3
-0.365704 -0.275035 0.007844 -0.477349 0.094037 -0.873668 109 79 57 255 3
-0.365355 -0.278980 0.007628 -0.508239 0.010489 -0.861152 107 77 56 255 3
-0.365005 -0.282925 0.007411 -0.542577 -0.084081 -0.835787 107 77 55 255 3
-0.364365 -0.286885 0.007720 -0.571456 -0.181970 -0.800203 105 76 55 255 3
-0.363506 -0.290859 0.008422 -0.591738 -0.276801 -0.757118 103 74 54 255 3
-0.362501 -0.294843 0.009387 -0.616999 -0.381125 -0.688517 102 71 53 255 3
-0.361204 -0.298850 0.010877 -0.609803 -0.472781 -0.636096 100 70 51 255 3
-0.359324 -0.302899 0.013416 -0.622557 -0.599517 -0.502992 95 67 49 255 3
-0.356786 -0.307001 0.017136 -0.620921 -0.632081 -0.463606 94 65 48 255 3
-0.351988 -0.311275 0.024924 -0.607978 -0.682977 -0.404851 92 68 51 255 3
-0.424431 0.270391 0.026945 -0.691185 0.492540 -0.528836 90 67 50 255 3
-0.426374 0.265596 0.022372 -0.688812 0.427647 -0.585368 90 66 48 255 3
-0.427413 0.261133 0.019515 -0.674720 0.367974 -0.639804 98 70 50 255 3
-0.427826 0.256897 0.017846 -0.637988 0.255680 -0.726360 104 73 52 255 3
-0.427962 0.252763 0.016706 -0.594409 0.142127 -0.791503 108 77 55 255 3
-0.427819 0.248727 0.016093 -0.544731 0.042291 -0.837544 111 79 57 255 3
-0.427398 0.244787 0.016008 -0.492909 -0.058306 -0.868125 113 81 59 255 3
-0.426837 0.240894 0.016187 -0.429100 -0.157161 -0.889479 114 84 62 255 3
-0.426067 0.237070 0.016762 -0.381600 -0.218678 -0.898087 114 85 62 255 3
-0.425088 0.233313 0.017733 -0.343367 -0.275009 -0.898036 115 88 64 255 3
-0.424108 0.229553 0.018704 -0.303110 -0.333649 -0.892638 117 89 65 255 3
-0.422988 0.225835 0.019939 -0.278516 -0.370450 -0.886113 119 90 66 255 3
-0.421868 0.222112 0.021173 -0.253919 -0.402902 -0.879315 120 91 66 255 3
-0.420678 0.218408 0.022539 -0.227309 -0.435449 -0.871042 119 90 65 255 3
-0.419347 0.214743 0.024169 -0.196696 -0.468374 -0.861357 119 89 64 255 3
-0.417876 0.211117 0.026063 -0.148702 -0.527210 -0.836623 117 87 62 255 3
-0.416335 0.207506 0.028089 -0.111411 -0.571176 -0.813232 115 84 60 255 3
-0.414583 0.203953 0.030510 -0.070576 -0.602903 -0.794686 106 78 54 255 3
-0.412131 0.200604 0.034250 -0.046933 -0.636049 -0.770220 98 74 53 255 3
-0.361289 -0.224199 0.034966 -0.170861 0.639151 -0.749862 86 68 52 255 3
-0.363321 -0.228154 0.030412 -0.181900 0.616428 -0.766113 100 70 50 255 3
-0.364920 -0.232101 0.026646 -0.209676 0.570286 -0.794235 107 77 55 255 3
-0.365581 -0.236054 0.024589 -0.238908 0.544492 -0.804022 110 81 57 255 3
-0.366242 -0.240001 0.022532 -0.269840 0.490851 -0.828403 111 83 58 255 3
-0.366904 -0.243941 0.020475 -0.301338 0.444192 -0.843735 112 84 60 255 3
-0.367421 -0.247879 0.018682 -0.319687 0.419597 -0.849552 113 85 61 255 3
-0.367867 -0.251814 0.017020 -0.338596 0.391786 -0.855486 113 86 62 255 3
-0.368313 -0.255744 0.015357 -0.356636 0.364541 -0.860187 114 87 63 255 3
-0.368687 -0.259672 0.013827 -0.376639 0.331906 -0.864859 112 86 62 255 3
-0.368845 -0.263604 0.012691 -0.400137 0.278974 -0.872963 111 84 60 255 3
-0.369075 -0.267529 0.011423 -0.425456 0.219983 -0.877835 110 82 59 255 3
-0.369305 -0.271450 0.010155 -0.455973 0.143182 -0.878401 109 81 58 255 3
-0.368956 -0.275395 0.009939 -0.486959 0.053554 -0.871781 108 78 56 255 3
-0.368606 -0.279339 0.009723 -0.518381 -0.026299 -0.854745 106 76 54 255 3
-0.368329 -0.283279 0.009375 -0.550242 -0.140388 -0.823119 105 76 54 255 3
-0.367471 -0.287250 0.010078 -0.576653 -0.244438 -0.779565 104 75 54 255 3
-0.366613 -0.291224 0.010782 -0.597081 -0.318461 -0.736259 103 73 54 255 3
-0.365319 -0.295226 0.012273 -0.615276 -0.430338 -0.660488 100 70 51 255 3
-0.363733 -0.299251 0.014290 -0.615335 -0.521235 -0.591335 97 68 49 255 3
-0.361638 -0.303316 0.017226 -0.605027 -0.622056 -0.496979 93 66 48 255 3
-0.358232 -0.307480 0.022526 -0.607465 -0.660173 -0.441766 94 67 49 255 3
-0.425316 0.270762 0.033534 -0.683070 0.515610 -0.517265 88 67 51 255 3
-0.429127 0.265297 0.025389 -0.687678 0.455317 -0.565496 90 65 48 255 3
-0.430024 0.260883 0.022794 -0.674938 0.395641 -0.622838 96 69 49 255 3
-0.430713 0.256549 0.020595 -0.645721 0.287515 -0.707375 102 72 51 255 3
-0.431126 0.252318 0.018925 -0.606819 0.181809 -0.773767 106 76 54 255 3
-0.431052 0.248259 0.018180 -0.572495 0.106993 -0.812897 110 78 56 255 3
-0.430770 0.244273 0.017831 -0.509714 -0.002164 -0.860341 113 81 59 255 3
-0.430279 0.240358 0.017878 -0.451952 -0.113962 -0.884733 114 83 61 255 3
-0.429649 0.236489 0.018190 -0.395338 -0.184756 -0.899763 114 85 62 255 3
-0.428671 0.232733 0.019161 -0.350755 -0.248566 -0.902876 115 87 64 255 3
-0.427623 0.228998 0.020265 -0.309231 -0.316409 -0.896806 117 89 65 255 3
-0.426644 0.225236 0.021237 -0.276363 -0.354402 -0.893321 118 91 66 255 3
-0.425456 0.221538 0.022605 -0.251754 -0.387690 -0.886745 119 91 66 255 3
-0.424268 0.217835 0.023973 -0.227133 -0.419141 -0.879051 120 90 66 255 3
-0.423079 0.214128 0.025341 -0.194927 -0.454249 -0.869288 119 89 64 255 3
-0.421610 0.210503 0.027237 -0.156806 -0.501123 -0.851051 118 88 63 255 3
-0.420141 0.206873 0.029132 -0.111796 -0.557740 -0.822452 115 85 61 255 3
-0.418672 0.203236 0.031028 -0.084700 -0.576506 -0.812691 106 80 56 255 3
-0.416294 0.199869 0.034640 -0.042794 -0.620258 -0.783230 99 74 52 255 3
-0.412938 0.196783 0.040101 -0.029603 -0.638129 -0.769360 85 70 51 255 3
-0.366080 -0.224558 0.034322 -0.173049 0.628732 -0.758123 96 71 53 255 3
-0.367603 -0.228513 0.030684 -0.183126 0.600363 -0.778479 102 73 52 255 3
-0.368838 -0.232462 0.027572 -0.219181 0.552827 -0.803954 107 79 57 255 3
-0.369496 -0.236412 0.025513 -0.254873 0.506755 -0.823552 112 83 59 255 3
-0.370155 -0.240355 0.023454 -0.277832 0.467380 -0.839265 113 85 60 255 3
-0.370670 -0.244297 0.021659 -0.300685 0.432218 -0.850163 113 85 61 255 3
-0.371114 -0.248234 0.019995 -0.321459 0.404595 -0.856135 114 87 62 255 3
-0.371558 -0.252167 0.018331 -0.339930 0.375378 -0.862287 114 87 63 255 3
-0.372003 -0.256095 0.016668 -0.359235 0.348335 -0.865802 113 87 63 255 3
-0.372231 -0.260025 0.015399 -0.382182 0.304178 -0.872589 112 86 62 255 3
-0.372459 -0.263952 0.014130 -0.405000 0.254296 -0.878242 110 83 60 255 3
-0.372688 -0.267875 0.012861 -0.432936 0.187931 -0.881617 109 82 59 255 3
-0.372628 -0.271808 0.012118 -0.464909 0.105575 -0.879041 109 79 57 255 3
-0.372278 -0.275751 0.011902 -0.495064 0.021431 -0.868592 108 78 56 255 3
-0.372074 -0.279687 0.011422 -0.528085 -0.078249 -0.845578 107 76 54 255 3
-0.371434 -0.283645 0.011732 -0.556840 -0.182415 -0.810342 106 74 53 255 3
-0.370577 -0.287615 0.012436 -0.576933 -0.283181 -0.766131 103 73 52 255 3
-0.369503 -0.291601 0.013535 -0.600620 -0.397893 -0.693496 102 72 53 255 3
-0.368210 -0.295603 0.015028 -0.590900 -0.498631 -0.634195 99 68 50 255 3
-0.366264 -0.299652 0.017704 -0.604399 -0.583465 -0.542467 95 65 48 255 3
-0.363446 -0.303767 0.021958 -0.603982 -0.654204 -0.455218 95 66 49 255 3
-0.358014 -0.308075 0.030945 -0.600674 -0.688472 -0.406445 83 67 50 255 3
-0.295481 0.318018 0.289848 -0.267752 0.896181 -0.353792 81 69 52 255 3
-0.431327 0.265195 0.029466 -0.672973 0.467339 -0.573325 92 66 49 255 3
-0.432636 0.260632 0.026074 -0.675446 0.403537 -0.617196 95 68 48 255 3
-0.433670 0.256177 0.023212 -0.659658 0.345882 -0.667246 100 71 50 255 3
-0.434080 0.251946 0.021540 -0.627801 0.244534 -0.738965 105 74 52 255 3
-0.434214 0.247816 0.020397 -0.583099 0.145074 -0.799343 109 77 55 255 3
-0.434139 0.243759 0.019652 -0.528864 0.043702 -0.847581 113 81 58 255 3
-0.433649 0.239845 0.019699 -0.472978 -0.064356 -0.878721 115 84 61 255 3
-0.433089 0.235954 0.019879 -0.404008 -0.166800 -0.899420 115 86 62 255 3
-0.432251 0.232154 0.020587 -0.350565 -0.226813 -0.908659 115 87 64 255 3
-0.431205 0.228420 0.021693 -0.308897 -0.280789 -0.908703 116 88 64 255 3
-0.430158 0.224682 0.022798 -0.277169 -0.337564 -0.899571 118 90 66 255 3
-0.429042 0.220963 0.024035 -0.245627 -0.371216 -0.895470 119 90 66 255 3
-0.427924 0.217240 0.025272 -0.221875 -0.402797 -0.887990 120 90 66 255 3
-0.426807 0.213513 0.026509 -0.194821 -0.435911 -0.878650 118 88 64 255 3
-0.425480 0.209847 0.028143 -0.162422 -0.474495 -0.865144 118 87 63 255 3
-0.424014 0.206219 0.030041 -0.118405 -0.532036 -0.838402 117 86 63 255 3
-0.422547 0.202584 0.031938 -0.081749 -0.574844 -0.814169 108 81 57 255 3
-0.420522 0.199113 0.034893 -0.062887 -0.602753 -0.795446 103 74 49 255 3
-0.418008 0.195779 0.038774 -0.028588 -0.622620 -0.782002 98 70 48 255 3
-0.366828 -0.220973 0.041923 -0.148359 0.645198 -0.749473 76 69 54 255 3
-0.370288 -0.224922 0.034724 -0.179817 0.605506 -0.775261 100 72 53 255 3
-0.371879 -0.228872 0.030951 -0.198904 0.582378 -0.788209 106 76 54 255 3
-0.372751 -0.232822 0.028495 -0.223899 0.538427 -0.812382 109 81 58 255 3
-0.373407 -0.236769 0.026434 -0.258388 0.490974 -0.831974 113 84 59 255 3
-0.374064 -0.240710 0.024373 -0.284781 0.443749 -0.849698 114 86 61 255 3
-0.374434 -0.244652 0.022839 -0.304410 0.415145 -0.857315 115 87 62 255 3
-0.374876 -0.248587 0.021174 -0.322739 0.387717 -0.863432 114 87 62 255 3
-0.375246 -0.252519 0.019640 -0.341196 0.359925 -0.868354 115 88 63 255 3
-0.375617 -0.256447 0.018107 -0.361822 0.324393 -0.873987 113 87 63 255 3
-0.375844 -0.260376 0.016836 -0.384566 0.282775 -0.878719 112 85 62 255 3
-0.375999 -0.264303 0.015698 -0.408637 0.225475 -0.884408 111 84 62 255 3
-0.376227 -0.268225 0.014428 -0.439891 0.151780 -0.885132 111 83 60 255 3
-0.375949 -0.272165 0.014080 -0.471687 0.065239 -0.879349 109 80 58 255 3
-0.375744 -0.276100 0.013600 -0.507013 -0.027241 -0.861508 110 78 57 255 3
-0.375322 -0.280046 0.013515 -0.538532 -0.135041 -0.831714 108 76 54 255 3
-0.374539 -0.284010 0.014088 -0.564972 -0.243447 -0.788378 106 74 52 255 3
-0.373683 -0.287980 0.014793 -0.584409 -0.325745 -0.743207 104 72 51 255 3
-0.372393 -0.291978 0.016288 -0.592440 -0.436024 -0.677420 100 69 50 255 3
-0.370812 -0.295999 0.018309 -0.598638 -0.548114 -0.584127 96 66 48 255 3
-0.368580 -0.300067 0.021515 -0.589240 -0.637318 -0.496610 93 64 47 255 3
-0.364681 -0.304257 0.027748 -0.588450 -0.668406 -0.454928 91 68 49 255 3
-0.432563 0.265436 0.035399 -0.677132 0.494205 -0.545209 88 67 50 255 3
-0.435389 0.260332 0.029091 -0.667526 0.432750 -0.605918 94 66 47 255 3
-0.436281 0.255925 0.026491 -0.654704 0.373532 -0.657143 98 70 49 255 3
-0.436966 0.251598 0.024288 -0.642159 0.286891 -0.710863 104 73 52 255 3
-0.437306 0.247396 0.022747 -0.598876 0.211338 -0.772453 108 76 54 255 3
-0.437300 0.243316 0.021868 -0.550113 0.114765 -0.827167 110 79 57 255 3
-0.437017 0.239333 0.021518 -0.489610 -0.001226 -0.871940 113 83 60 255 3
-0.436527 0.235420 0.021566 -0.412973 -0.116002 -0.903325 114 84 61 255 3
-0.435829 0.231575 0.022011 -0.354269 -0.185692 -0.916522 116 87 64 255 3
-0.434784 0.227843 0.023117 -0.308239 -0.248550 -0.918265 115 87 64 255 3
-0.433808 0.224084 0.024091 -0.276276 -0.308285 -0.910292 118 89 66 255 3
-0.432763 0.220345 0.025197 -0.237845 -0.353599 -0.904653 118 90 66 255 3
-0.431648 0.216624 0.026436 -0.214827 -0.386980 -0.896714 120 91 67 255 3
-0.430532 0.212898 0.027675 -0.192434 -0.419402 -0.887170 119 89 65 255 3
-0.429346 0.209191 0.029045 -0.166108 -0.453086 -0.875855 118 88 63 255 3
-0.427813 0.205587 0.031078 -0.120041 -0.514106 -0.849285 117 86 62 255 3
-0.426348 0.201954 0.032977 -0.079692 -0.562850 -0.822708 112 82 59 255 3
-0.424675 0.198379 0.035274 -0.063674 -0.583316 -0.809746 106 73 49 255 3
-0.422236 0.195027 0.039026 -0.032924 -0.608117 -0.793165 99 67 46 255 3
-0.372978 -0.221326 0.038768 -0.164548 0.625673 -0.762533 87 70 52 255 3
-0.374563 -0.225284 0.034990 -0.175246 0.596504 -0.783245 99 72 52 255 3
-0.376006 -0.229232 0.031477 -0.191162 0.579309 -0.792375 108 79 57 255 3
-0.376660 -0.233182 0.029414 -0.239159 0.514450 -0.823495 112 84 60 255 3
-0.377243 -0.237127 0.027483 -0.264222 0.470551 -0.841884 114 86 61 255 3
-0.377826 -0.241067 0.025552 -0.291833 0.419451 -0.859590 114 87 62 255 3
-0.378194 -0.245006 0.024017 -0.307929 0.399435 -0.863500 114 87 63 255 3
-0.378634 -0.248939 0.022350 -0.325500 0.371206 -0.869630 114 87 62 255 3
-0.379003 -0.252869 0.020814 -0.343247 0.343659 -0.874117 114 87 63 255 3
-0.379228 -0.256799 0.019543 -0.364099 0.304258 -0.880261 112 85 61 255 3
-0.379382 -0.260728 0.018404 -0.386831 0.256626 -0.885723 111 84 61 255 3
-0.379608 -0.264651 0.017132 -0.414296 0.193389 -0.889359 110 83 61 255 3
-0.379547 -0.268583 0.016388 -0.446858 0.114594 -0.887235 109 81 60 255 3
-0.379341 -0.272518 0.015908 -0.479686 0.031785 -0.876864 109 79 57 255 3
-0.379135 -0.276453 0.015428 -0.516263 -0.069385 -0.853615 109 77 56 255 3
-0.378425 -0.280411 0.015870 -0.547689 -0.178392 -0.817443 108 74 53 255 3
-0.377715 -0.284371 0.016312 -0.569035 -0.283367 -0.771947 106 72 51 255 3
-0.376571 -0.288357 0.017545 -0.593150 -0.408039 -0.694030 105 71 51 255 3
-0.375210 -0.292360 0.019173 -0.590511 -0.498107 -0.634970 98 68 48 255 3
-0.373344 -0.296399 0.021724 -0.591815 -0.582354 -0.557333 94 66 47 255 3
-0.370320 -0.300520 0.026382 -0.581731 -0.663596 -0.470351 94 66 48 255 3
-0.233038 -0.313636 0.275855 -0.038630 -0.962327 -0.269138 75 66 49 255 3
-0.304857 0.311661 0.289173 -0.315827 0.917465 -0.241893 83 69 53 255 3
-0.438142 0.260033 0.032109 -0.661835 0.469871 -0.584120 94 67 49 255 3
-0.438893 0.255674 0.029771 -0.658899 0.399489 -0.637385 96 68 48 255 3
-0.439921 0.251226 0.026903 -0.637317 0.327310 -0.697636 103 72 51 255 3
-0.440259 0.247024 0.025361 -0.594190 0.253044 -0.763483 106 76 54 255 3
-0.440390 0.242897 0.024216 -0.559565 0.186735 -0.807476 108 78 57 255 3
-0.440384 0.238821 0.023336 -0.495662 0.046644 -0.867262 112 82 59 255 3
-0.439894 0.234909 0.023384 -0.423001 -0.059422 -0.904179 114 84 61 255 3
-0.439473 0.230974 0.023299 -0.353871 -0.169197 -0.919863 115 86 63 255 3
-0.438499 0.227220 0.024274 -0.305772 -0.231108 -0.923630 117 88 65 255 3
-0.437525 0.223464 0.025250 -0.270777 -0.283232 -0.920032 118 90 66 255 3
-0.436550 0.219704 0.026225 -0.239445 -0.329638 -0.913239 119 91 66 255 3
-0.435367 0.216007 0.027597 -0.208530 -0.372743 -0.904200 120 91 67 255 3
-0.434253 0.212284 0.028837 -0.187526 -0.406093 -0.894384 119 90 66 255 3
-0.433139 0.208557 0.030077 -0.161637 -0.443020 -0.881820 118 88 64 255 3
-0.431677 0.204933 0.031979 -0.128723 -0.489401 -0.862506 118 87 64 255 3
-0.430216 0.201303 0.033881 -0.086627 -0.547120 -0.832559 114 83 61 255 3
-0.428753 0.197668 0.035783 -0.053156 -0.571914 -0.818590 109 74 51 255 3
-0.426457 0.194276 0.039274 -0.028748 -0.599639 -0.799754 100 66 45 255 3
-0.423051 0.191205 0.044884 -0.011399 -0.628144 -0.778014 82 70 53 255 3
-0.377251 -0.221692 0.039033 -0.157097 0.614584 -0.773050 95 70 50 255 3
-0.378833 -0.225645 0.035252 -0.182668 0.590352 -0.786204 101 74 52 255 3
-0.379842 -0.229595 0.032526 -0.216632 0.543681 -0.810853 110 81 58 255 3
-0.380494 -0.233543 0.030461 -0.246941 0.498101 -0.831213 113 86 61 255 3
-0.381146 -0.237484 0.028397 -0.274795 0.445688 -0.851969 114 87 62 255 3
-0.381584 -0.241424 0.026728 -0.295660 0.412408 -0.861687 115 88 63 255 3
-0.381950 -0.245360 0.025191 -0.313299 0.383573 -0.868744 115 88 63 255 3
-0.382317 -0.249292 0.023654 -0.329610 0.356453 -0.874242 114 87 63 255 3
-0.382685 -0.253220 0.022118 -0.347089 0.326627 -0.879115 113 86 62 255 3
-0.382909 -0.257148 0.020845 -0.368177 0.282710 -0.885732 113 86 62 255 3
-0.383062 -0.261075 0.019705 -0.391079 0.228242 -0.891607 111 84 61 255 3
-0.383215 -0.264999 0.018564 -0.421653 0.159039 -0.892701 110 83 61 255 3
-0.383009 -0.268934 0.018083 -0.455366 0.072392 -0.887356 110 81 60 255 3
-0.382803 -0.272868 0.017603 -0.493315 -0.020027 -0.869620 109 79 58 255 3
-0.382381 -0.276812 0.017518 -0.529345 -0.132344 -0.838021 109 76 55 255 3
-0.381671 -0.280769 0.017961 -0.558992 -0.242617 -0.792884 108 73 52 255 3
-0.380818 -0.284737 0.018667 -0.580508 -0.331413 -0.743758 106 72 50 255 3
-0.379460 -0.288734 0.020297 -0.589441 -0.448047 -0.672170 103 69 49 255 3
-0.377885 -0.292750 0.022323 -0.586864 -0.568679 -0.576363 98 68 48 255 3
-0.375445 -0.296826 0.025931 -0.580731 -0.634401 -0.510182 92 66 48 255 3
-0.371201 -0.301029 0.032837 -0.573447 -0.682101 -0.453758 85 66 49 255 3
-0.440071 0.260025 0.036719 -0.649656 0.486327 -0.584323 89 66 48 255 3
-0.441645 0.255373 0.032787 -0.652110 0.437701 -0.619007 96 67 47 255 3
-0.442531 0.250973 0.030182 -0.634313 0.389687 -0.667676 102 71 50 255 3
-0.443212 0.246652 0.027974 -0.593101 0.319997 -0.738805 106 75 54 255 3
-0.443549 0.242455 0.026431 -0.561496 0.254877 -0.787248 108 78 57 255 3
-0.443680 0.238332 0.025285 -0.505694 0.119321 -0.854421 112 81 59 255 3
-0.443466 0.234329 0.024802 -0.433792 0.000557 -0.901013 114 83 61 255 3
-0.442976 0.230418 0.024850 -0.359683 -0.121610 -0.925116 116 86 63 255 3
-0.442211 0.226598 0.025429 -0.309115 -0.194681 -0.930885 118 89 65 255 3
-0.441307 0.222821 0.026272 -0.264195 -0.255538 -0.930001 120 90 67 255 3
-0.440333 0.219064 0.027248 -0.236260 -0.312670 -0.920010 120 91 67 255 3
-0.439153 0.215369 0.028622 -0.204108 -0.358616 -0.910898 121 92 67 255 3
-0.437971 0.211670 0.029996 -0.182609 -0.393637 -0.900946 121 92 67 255 3
-0.436859 0.207945 0.031238 -0.159141 -0.429401 -0.888982 119 89 65 255 3
-0.435538 0.204281 0.032877 -0.129688 -0.467027 -0.874681 119 89 64 255 3
-0.434079 0.200653 0.034781 -0.098042 -0.514632 -0.851787 116 86 63 255 3
-0.432550 0.197041 0.036817 -0.056911 -0.559044 -0.827183 110 76 55 255 3
-0.430605 0.193547 0.039649 -0.028267 -0.584879 -0.810628 99 66 46 255 3
-0.428105 0.190210 0.043541 -0.015100 -0.614359 -0.788882 94 72 54 255 3
-0.379299 -0.218100 0.044267 -0.142081 0.631168 -0.762522 82 68 51 255 3
-0.381519 -0.222057 0.039293 -0.156540 0.595920 -0.787639 98 69 49 255 3
-0.383096 -0.226006 0.035508 -0.176132 0.577546 -0.797131 108 78 55 255 3
-0.383745 -0.229957 0.033441 -0.221011 0.526752 -0.820784 113 84 61 255 3
-0.384395 -0.233901 0.031374 -0.256550 0.468057 -0.845638 113 86 61 255 3
-0.384902 -0.237842 0.029571 -0.283656 0.423744 -0.860221 116 89 64 255 3
-0.385338 -0.241780 0.027901 -0.301884 0.397324 -0.866602 116 89 64 255 3
-0.385703 -0.245714 0.026362 -0.318780 0.368856 -0.873112 116 89 64 255 3
-0.386069 -0.249644 0.024824 -0.334516 0.342030 -0.878131 115 88 63 255 3
-0.386363 -0.253571 0.023418 -0.352190 0.303945 -0.885200 115 87 63 255 3
-0.386515 -0.257499 0.022277 -0.371356 0.257549 -0.892056 112 85 61 255 3
-0.386666 -0.261424 0.021135 -0.397605 0.197061 -0.896146 112 84 61 255 3
-0.386675 -0.265352 0.020258 -0.429875 0.119850 -0.894899 110 83 61 255 3
-0.386469 -0.269286 0.019777 -0.472975 0.034353 -0.880406 109 81 59 255 3
-0.386191 -0.273222 0.019428 -0.505620 -0.066550 -0.860186 109 79 58 255 3
-0.385554 -0.277174 0.019739 -0.540643 -0.178829 -0.822025 108 75 54 255 3
-0.384845 -0.281131 0.020182 -0.565373 -0.289679 -0.772295 106 71 51 255 3
-0.383633 -0.285117 0.021550 -0.594518 -0.421280 -0.684888 105 71 50 255 3
-0.382205 -0.289119 0.023314 -0.591112 -0.515030 -0.620751 102 68 48 255 3
-0.380417 -0.293149 0.025738 -0.586723 -0.590800 -0.553815 96 67 48 255 3
-0.377190 -0.297275 0.030803 -0.571436 -0.665138 -0.480679 92 67 49 255 3
-0.243479 -0.309884 0.275385 -0.011945 -0.980749 -0.194905 73 67 51 255 3
-0.314204 0.305327 0.288473 -0.328597 0.939506 -0.096713 85 70 51 255 3
-0.444397 0.255073 0.035804 -0.632925 0.461714 -0.621471 94 66 46 255 3
-0.445212 0.250696 0.033329 -0.612369 0.431098 -0.662690 100 70 48 255 3
-0.446303 0.246232 0.030323 -0.587877 0.345326 -0.731540 105 75 54 255 3
-0.446844 0.241965 0.028379 -0.553190 0.284502 -0.782968 108 77 57 255 3
-0.447043 0.237821 0.027099 -0.505468 0.168530 -0.846227 112 81 59 255 3
-0.446966 0.233772 0.026351 -0.443620 0.060880 -0.894145 114 83 61 255 3
-0.446546 0.229840 0.026266 -0.370958 -0.072142 -0.925843 116 85 62 255 3
-0.445919 0.225977 0.026580 -0.310484 -0.166193 -0.935938 118 87 64 255 3
-0.445016 0.222202 0.027424 -0.268927 -0.229326 -0.935461 120 90 66 255 3
-0.444044 0.218446 0.028402 -0.231964 -0.293474 -0.927397 120 91 67 255 3
-0.442934 0.214732 0.029645 -0.201421 -0.344887 -0.916778 120 92 67 255 3
-0.441755 0.211035 0.031020 -0.177322 -0.379601 -0.907998 121 93 68 255 3
-0.440575 0.207334 0.032395 -0.153042 -0.413542 -0.897531 120 91 66 255 3
-0.439395 0.203628 0.033771 -0.126470 -0.442355 -0.887878 120 90 66 255 3
-0.437938 0.200003 0.035677 -0.082229 -0.506488 -0.858317 116 87 64 255 3
-0.436412 0.196393 0.037716 -0.047067 -0.554271 -0.831004 111 81 59 255 3
-0.434815 0.192797 0.039887 -0.035756 -0.567955 -0.822282 101 70 50 255 3
-0.432321 0.189463 0.043783 0.002398 -0.611407 -0.791312 96 68 49 255 3
-0.384280 -0.218465 0.043204 -0.136630 0.625747 -0.767967 94 69 51 255 3
-0.385852 -0.222421 0.039415 -0.160477 0.600508 -0.783350 103 71 50 255 3
-0.386998 -0.226371 0.036420 -0.189384 0.557965 -0.807966 111 81 57 255 3
-0.387574 -0.230319 0.034484 -0.232463 0.486852 -0.841983 112 85 62 255 3
-0.388221 -0.234261 0.032415 -0.258551 0.447002 -0.856353 115 87 63 255 3
-0.388655 -0.238201 0.030743 -0.282828 0.410695 -0.866798 116 88 64 255 3
-0.389018 -0.242137 0.029203 -0.303292 0.381782 -0.873073 117 90 65 255 3
-0.389453 -0.246067 0.027531 -0.320955 0.354699 -0.878167 116 88 64 255 3
-0.389817 -0.249995 0.025991 -0.339594 0.327793 -0.881605 115 87 63 255 3
-0.389967 -0.253924 0.024849 -0.358304 0.284837 -0.889093 115 87 62 255 3
-0.390118 -0.257850 0.023706 -0.379946 0.232349 -0.895352 114 86 62 255 3
-0.390340 -0.261771 0.022431 -0.408975 0.162792 -0.897908 113 84 61 255 3
-0.390133 -0.265704 0.021949 -0.442963 0.073395 -0.893531 111 83 61 255 3
-0.389926 -0.269637 0.021468 -0.481711 -0.017994 -0.876145 110 81 59 255 3
-0.389505 -0.273578 0.021383 -0.521403 -0.135166 -0.842537 108 77 57 255 3
-0.388797 -0.277533 0.021827 -0.548296 -0.220211 -0.806771 106 74 54 255 3
-0.387874 -0.281500 0.022668 -0.580594 -0.343852 -0.738022 105 71 51 255 3
-0.386520 -0.285494 0.024301 -0.574348 -0.449896 -0.683899 104 70 50 255 3
-0.384879 -0.289509 0.026464 -0.590970 -0.541559 -0.597886 98 67 48 255 3
-0.382305 -0.293587 0.030344 -0.591689 -0.625306 -0.508818 93 66 48 255 3
-0.377720 -0.297802 0.037925 -0.574158 -0.673938 -0.464920 86 68 51 255 3
-0.447219 0.254748 0.038689 -0.614881 0.480202 -0.625562 90 66 47 255 3
-0.448237 0.250300 0.035812 -0.608152 0.445059 -0.657323 99 68 47 255 3
-0.449462 0.245789 0.032537 -0.586496 0.413891 -0.696216 102 74 53 255 3
-0.450070 0.241500 0.030459 -0.535209 0.324990 -0.779700 107 76 55 255 3
-0.450472 0.237286 0.028779 -0.506863 0.250775 -0.824744 112 79 57 255 3
-0.450533 0.233193 0.027764 -0.441825 0.105335 -0.890896 115 82 60 255 3
-0.450044 0.229286 0.027813 -0.387026 -0.022722 -0.921789 116 84 61 255 3
-0.449623 0.225356 0.027728 -0.318538 -0.144409 -0.936846 118 87 64 255 3
-0.448653 0.221605 0.028707 -0.279745 -0.201360 -0.938721 119 89 65 255 3
-0.447752 0.217830 0.029552 -0.236653 -0.273281 -0.932369 119 89 66 255 3
-0.446781 0.214073 0.030531 -0.208250 -0.321243 -0.923816 120 91 66 255 3
-0.445535 0.210401 0.032041 -0.171763 -0.362042 -0.916200 121 91 67 255 3
-0.444357 0.206702 0.033417 -0.143967 -0.393981 -0.907773 121 91 67 255 3
-0.443179 0.202998 0.034794 -0.112055 -0.429011 -0.896322 118 90 65 255 3
-0.441793 0.199354 0.036570 -0.076225 -0.479446 -0.874255 115 87 64 255 3
-0.440270 0.195746 0.038610 -0.052630 -0.530602 -0.845985 112 84 61 255 3
-0.438814 0.192111 0.040518 -0.018096 -0.573510 -0.818999 105 76 55 255 3
-0.436462 0.188738 0.044153 -0.001883 -0.609367 -0.792886 99 69 49 255 3
-0.385834 -0.214873 0.049369 -0.110035 0.627679 -0.770656 80 69 53 255 3
-0.388682 -0.218832 0.043193 -0.142960 0.604621 -0.783579 99 69 50 255 3
-0.390251 -0.222784 0.039401 -0.163738 0.577450 -0.799839 106 74 51 255 3
-0.390895 -0.226734 0.037330 -0.193033 0.519751 -0.832224 112 82 58 255 3
-0.391469 -0.230680 0.035391 -0.233124 0.469645 -0.851520 114 86 63 255 3
-0.392044 -0.234620 0.033452 -0.259825 0.419189 -0.869926 115 87 63 255 3
-0.392405 -0.238558 0.031911 -0.281935 0.391944 -0.875724 116 89 65 255 3
-0.392766 -0.242493 0.030370 -0.301345 0.364922 -0.880922 115 89 64 255 3
-0.393200 -0.246420 0.028696 -0.320482 0.338156 -0.884840 114 87 63 255 3
-0.393420 -0.250349 0.027420 -0.340972 0.304156 -0.889509 115 87 63 255 3
-0.393640 -0.254274 0.026144 -0.363363 0.262457 -0.893915 116 86 62 255 3
-0.393789 -0.258198 0.025000 -0.390578 0.202154 -0.898100 114 85 61 255 3
-0.393796 -0.262124 0.024121 -0.423012 0.123580 -0.897658 114 85 62 255 3
-0.393589 -0.266057 0.023639 -0.466284 0.033848 -0.883987 112 82 61 255 3
-0.393382 -0.269988 0.023157 -0.499179 -0.070006 -0.863667 109 80 59 255 3
-0.392675 -0.273940 0.023602 -0.536419 -0.185693 -0.823269 107 77 57 255 3
-0.391968 -0.277895 0.024047 -0.563545 -0.272167 -0.779963 105 73 53 255 3
-0.390688 -0.281880 0.025550 -0.584535 -0.388434 -0.712347 104 71 51 255 3
-0.389265 -0.285878 0.027317 -0.585680 -0.500281 -0.637729 100 69 49 255 3
-0.387412 -0.289907 0.029879 -0.584548 -0.599727 -0.546472 94 66 47 255 3
-0.383983 -0.294038 0.035351 -0.577995 -0.636069 -0.511213 93 68 49 255 3
-0.447511 0.255316 0.046498 -0.603019 0.506217 -0.616533 85 69 51 255 3
-0.451262 0.249904 0.038296 -0.589474 0.474200 -0.653954 96 68 48 255 3
-0.452482 0.245393 0.035017 -0.560306 0.434243 -0.705330 101 73 52 255 3
-0.453225 0.241057 0.032671 -0.542847 0.374831 -0.751544 107 75 55 255 3
-0.453763 0.236798 0.030723 -0.511734 0.279871 -0.812281 112 79 57 255 3
-0.453891 0.232683 0.029575 -0.457616 0.138493 -0.878298 115 82 59 255 3
-0.453608 0.228709 0.029224 -0.406882 0.025564 -0.913123 116 84 60 255 3
-0.453188 0.224780 0.029139 -0.345944 -0.108956 -0.931907 117 86 63 255 3
-0.452356 0.220987 0.029853 -0.282549 -0.193612 -0.939511 118 89 65 255 3
-0.451456 0.217213 0.030700 -0.241728 -0.245811 -0.938693 117 89 65 255 3
-0.450555 0.213436 0.031546 -0.204363 -0.298505 -0.932272 119 90 66 255 3
-0.449380 0.209744 0.032925 -0.173624 -0.334827 -0.926146 120 91 66 255 3
-0.448135 0.206070 0.034436 -0.136573 -0.371316 -0.918407 120 91 66 255 3
-0.447028 0.202347 0.035682 -0.103938 -0.406137 -0.907882 117 90 65 255 3
-0.445782 0.198663 0.037193 -0.068719 -0.453507 -0.888600 115 87 64 255 3
-0.444330 0.195037 0.039103 -0.039467 -0.513337 -0.857279 113 86 62 255 3
-0.442877 0.191404 0.041013 -0.013941 -0.567618 -0.823174 108 81 58 255 3
-0.440736 0.187972 0.044253 0.008927 -0.596967 -0.802216 100 69 48 255 3
-0.438250 0.184632 0.048157 0.022740 -0.621980 -0.782703 93 73 52 255 3
-0.391515 -0.215240 0.046973 -0.126567 0.611428 -0.781112 89 67 50 255 3
-0.393079 -0.219198 0.043177 -0.143340 0.588463 -0.795717 101 70 50 255 3
-0.394289 -0.223148 0.040043 -0.161386 0.550856 -0.818848 108 77 54 255 3
-0.394860 -0.227097 0.038103 -0.206804 0.490570 -0.846506 113 84 60 255 3
-0.395432 -0.231039 0.036162 -0.232302 0.446881 -0.863906 115 87 63 255 3
-0.395862 -0.234979 0.034487 -0.260935 0.394485 -0.881076 116 88 64 255 3
-0.396151 -0.238916 0.033076 -0.278402 0.374571 -0.884415 116 88 64 255 3
-0.396511 -0.242847 0.031534 -0.296757 0.347632 -0.889431 116 89 65 255 3
-0.396872 -0.246775 0.029991 -0.317989 0.316044 -0.893868 115 88 64 255 3
-0.397090 -0.250701 0.028714 -0.340423 0.282739 -0.896756 115 87 63 255 3
-0.397238 -0.254627 0.027569 -0.371623 0.234683 -0.898232 116 86 62 255 3
-0.397387 -0.258549 0.026424 -0.400719 0.165498 -0.901130 116 86 62 255 3
-0.397322 -0.262475 0.025677 -0.443911 0.088483 -0.891691 114 84 61 255 3
-0.397043 -0.266409 0.025327 -0.478649 -0.019293 -0.877795 112 82 60 255 3
-0.396622 -0.270347 0.025242 -0.518797 -0.139461 -0.843445 110 80 59 255 3
-0.395915 -0.274299 0.025688 -0.546704 -0.231846 -0.804588 107 77 56 255 3
-0.394852 -0.278270 0.026795 -0.579650 -0.359965 -0.731048 104 72 52 255 3
-0.393646 -0.282253 0.028167 -0.573757 -0.471841 -0.669454 101 70 50 255 3
-0.391868 -0.286271 0.030599 -0.583892 -0.564333 -0.583608 96 67 47 255 3
-0.389160 -0.290350 0.034753 -0.579805 -0.627535 -0.519640 93 67 49 255 3
-0.259241 -0.302129 0.274808 -0.070604 -0.996886 0.035106 81 68 50 255 3
-0.454286 0.249507 0.040779 -0.567760 0.486139 -0.664317 92 68 49 255 3
-0.455503 0.244998 0.037497 -0.559692 0.457777 -0.690786 98 72 50 255 3
-0.456448 0.240592 0.034749 -0.533388 0.390849 -0.750156 105 74 53 255 3
-0.456984 0.236334 0.032800 -0.511799 0.303055 -0.803878 111 78 56 255 3
-0.457247 0.232174 0.031383 -0.462143 0.191432 -0.865897 114 81 58 255 3
-0.457169 0.228132 0.030633 -0.422673 0.075006 -0.903173 117 84 61 255 3
-0.456681 0.224228 0.030681 -0.355006 -0.061703 -0.932825 117 87 64 255 3
-0.456056 0.220369 0.030996 -0.293625 -0.153843 -0.943460 116 88 65 255 3
-0.455157 0.216597 0.031844 -0.247727 -0.213018 -0.945121 118 90 66 255 3
-0.454189 0.212844 0.032825 -0.209276 -0.274601 -0.938508 118 89 65 255 3
-0.453221 0.209089 0.033805 -0.172274 -0.308676 -0.935436 119 91 66 255 3
-0.452115 0.205373 0.035052 -0.132944 -0.347107 -0.928355 116 87 62 255 3
-0.451010 0.201653 0.036299 -0.102187 -0.381906 -0.918534 117 88 63 255 3
-0.449903 0.197929 0.037546 -0.069712 -0.427431 -0.901356 115 87 63 255 3
-0.448454 0.194307 0.039458 -0.022966 -0.495705 -0.868187 113 86 62 255 3
-0.446935 0.190698 0.041503 -0.000673 -0.566647 -0.823961 111 83 59 255 3
-0.445072 0.187187 0.044214 0.007787 -0.586200 -0.810129 105 72 49 255 3
-0.442523 0.183870 0.048256 0.033127 -0.620190 -0.783752 96 71 49 255 3
-0.392651 -0.211646 0.053940 -0.103975 0.620199 -0.777523 76 68 53 255 3
-0.395909 -0.215610 0.046955 -0.119145 0.595578 -0.794412 94 68 50 255 3
-0.397469 -0.219564 0.043155 -0.138041 0.571184 -0.809131 103 72 51 255 3
-0.398251 -0.223513 0.040814 -0.168820 0.528391 -0.832047 111 82 58 255 3
-0.398820 -0.227459 0.038872 -0.209844 0.473944 -0.855186 114 87 62 255 3
-0.399390 -0.231398 0.036929 -0.235252 0.415348 -0.878716 116 89 64 255 3
-0.399748 -0.235335 0.035385 -0.254759 0.381974 -0.888366 117 90 66 255 3
-0.400035 -0.239270 0.033974 -0.272458 0.353486 -0.894882 116 90 66 255 3
-0.400323 -0.243200 0.032562 -0.292276 0.326497 -0.898874 115 88 64 255 3
-0.400541 -0.247128 0.031284 -0.313606 0.295318 -0.902462 115 88 64 255 3
-0.400687 -0.251055 0.030138 -0.337474 0.258310 -0.905200 116 87 63 255 3
-0.400905 -0.254976 0.028859 -0.375249 0.200111 -0.905065 116 86 62 255 3
-0.400910 -0.258901 0.027978 -0.407656 0.119908 -0.905228 116 85 62 255 3
-0.400773 -0.262829 0.027363 -0.457993 0.031794 -0.888387 115 83 61 255 3
-0.400566 -0.266758 0.026881 -0.497364 -0.087604 -0.863108 113 82 60 255 3
-0.399860 -0.270707 0.027326 -0.535992 -0.191388 -0.822243 111 79 59 255 3
-0.399012 -0.274665 0.028037 -0.563351 -0.284792 -0.775583 107 77 56 255 3
-0.397808 -0.278643 0.029411 -0.584187 -0.406415 -0.702533 102 71 50 255 3
-0.396247 -0.282644 0.031448 -0.583995 -0.526376 -0.617963 97 66 47 255 3
-0.394187 -0.286679 0.034413 -0.577079 -0.597427 -0.556831 93 65 46 255 3
-0.390344 -0.290827 0.040692 -0.578198 -0.629253 -0.519353 89 68 50 255 3
-0.456084 0.249541 0.045661 -0.571341 0.505079 -0.646889 86 69 51 255 3
-0.458455 0.244626 0.040110 -0.553725 0.479328 -0.680906 98 72 50 255 3
-0.459602 0.240150 0.036959 -0.527628 0.397973 -0.750483 104 74 52 255 3
-0.460204 0.235869 0.034874 -0.517792 0.336460 -0.786566 111 77 54 255 3
-0.460602 0.231664 0.033190 -0.488604 0.241793 -0.838333 116 81 59 255 3
-0.460728 0.227555 0.032039 -0.436528 0.128880 -0.890412 117 84 61 255 3
-0.460240 0.223653 0.032088 -0.366820 -0.011108 -0.930226 117 87 64 255 3
-0.459752 0.219751 0.032137 -0.305954 -0.131192 -0.942964 117 88 66 255 3
-0.458854 0.215981 0.032985 -0.248491 -0.200918 -0.947568 117 88 65 255 3
-0.457956 0.212209 0.033834 -0.208606 -0.247082 -0.946274 120 90 65 255 3
-0.457126 0.208412 0.034549 -0.172970 -0.281762 -0.943765 121 90 65 255 3
-0.456091 0.204677 0.035664 -0.136298 -0.314737 -0.939342 120 88 63 255 3
-0.454987 0.200960 0.036912 -0.093494 -0.353342 -0.930810 119 88 63 255 3
-0.453951 0.197218 0.038027 -0.064608 -0.394633 -0.916565 116 86 62 255 3
-0.452572 0.193577 0.039808 -0.037672 -0.473048 -0.880231 115 87 63 255 3
-0.450988 0.189993 0.041989 0.014363 -0.558218 -0.829570 112 84 60 255 3
-0.449266 0.186443 0.044436 0.034361 -0.594384 -0.803447 109 77 54 255 3
-0.446790 0.183109 0.048349 0.044540 -0.651263 -0.757544 102 71 48 255 3
-0.443422 0.180026 0.053994 0.070750 -0.669174 -0.739730 85 76 59 255 3
-0.398743 -0.212019 0.050736 -0.098557 0.605705 -0.789562 90 69 52 255 3
-0.400298 -0.215980 0.046932 -0.118126 0.585751 -0.801836 97 68 48 255 3
-0.401571 -0.219931 0.043659 -0.130072 0.564558 -0.815080 107 77 55 255 3
-0.402209 -0.223878 0.041582 -0.183792 0.498670 -0.847083 114 85 61 255 3
-0.402847 -0.227819 0.039504 -0.214493 0.444052 -0.869949 118 89 64 255 3
-0.403274 -0.231757 0.037826 -0.237188 0.394977 -0.887544 118 90 65 255 3
-0.403559 -0.235693 0.036413 -0.252280 0.365426 -0.896001 118 91 66 255 3
-0.403845 -0.239625 0.035000 -0.268470 0.336705 -0.902526 116 89 65 255 3
-0.404203 -0.243551 0.033455 -0.287669 0.306863 -0.907238 115 89 65 255 3
-0.404277 -0.247480 0.032440 -0.309227 0.272524 -0.911103 115 88 65 255 3
-0.404352 -0.251406 0.031426 -0.341340 0.225854 -0.912402 116 88 64 255 3
-0.404498 -0.255327 0.030279 -0.378435 0.158302 -0.911991 117 87 63 255 3
-0.404360 -0.259255 0.029663 -0.420734 0.079342 -0.903708 116 84 62 255 3
-0.404223 -0.263182 0.029048 -0.463346 -0.029788 -0.885677 115 83 61 255 3
-0.403731 -0.267121 0.029096 -0.509513 -0.148879 -0.847486 113 81 60 255 3
-0.403026 -0.271070 0.029542 -0.543646 -0.241744 -0.803747 110 78 57 255 3
-0.401895 -0.275041 0.030785 -0.580990 -0.376512 -0.721588 105 75 54 255 3
-0.400693 -0.279019 0.032160 -0.583378 -0.474803 -0.658963 99 69 49 255 3
-0.398921 -0.283032 0.034597 -0.581293 -0.553448 -0.596485 95 64 46 255 3
-0.396083 -0.287111 0.039025 -0.575585 -0.618350 -0.535112 94 66 48 255 3
-0.269603 -0.298422 0.274271 -0.188358 -0.967281 0.169968 74 65 48 255 3
-0.337617 0.291773 0.286789 -0.445244 0.890770 0.091031 83 73 54 255 3
-0.461339 0.244278 0.042856 -0.545883 0.491728 -0.678392 97 72 52 255 3
-0.462754 0.239708 0.039168 -0.542033 0.427086 -0.723739 103 73 52 255 3
-0.463354 0.235429 0.037082 -0.525551 0.357677 -0.771922 110 77 54 255 3
-0.463886 0.231178 0.035129 -0.492264 0.294733 -0.819029 114 80 57 255 3
-0.464079 0.227047 0.033843 -0.434460 0.151862 -0.887796 116 83 61 255 3
-0.463796 0.223079 0.033492 -0.378345 0.041962 -0.924713 117 87 65 255 3
-0.463376 0.219156 0.033408 -0.317567 -0.088867 -0.944062 115 88 66 255 3
-0.462616 0.215344 0.033990 -0.257575 -0.163514 -0.952322 117 89 66 255 3
-0.461720 0.211574 0.034840 -0.213470 -0.213851 -0.953257 119 89 64 255 3
-0.460959 0.207757 0.035423 -0.170241 -0.254438 -0.951987 122 91 66 255 3
-0.459994 0.204004 0.036405 -0.127117 -0.274985 -0.953008 122 90 65 255 3
-0.458960 0.200268 0.037522 -0.091342 -0.317043 -0.944002 122 90 65 255 3
-0.457925 0.196529 0.038638 -0.056693 -0.368211 -0.928012 117 86 62 255 3
-0.456686 0.192849 0.040154 -0.020493 -0.448625 -0.893485 115 86 62 255 3
-0.455036 0.189288 0.042471 0.023202 -0.527184 -0.849434 112 84 61 255 3
-0.453317 0.185741 0.044920 0.057227 -0.598240 -0.799271 110 79 55 255 3
-0.451051 0.182349 0.048437 0.084453 -0.656985 -0.749158 103 69 47 255 3
-0.448442 0.179047 0.052621 0.096857 -0.686511 -0.720639 96 75 55 255 3
-0.403129 -0.212392 0.050710 -0.092966 0.599216 -0.795172 100 71 53 255 3
-0.404680 -0.216348 0.046903 -0.112585 0.569735 -0.814080 100 70 49 255 3
-0.405526 -0.220298 0.044424 -0.151481 0.520024 -0.840612 108 80 56 255 3
-0.406162 -0.224242 0.042345 -0.180261 0.475881 -0.860838 117 88 63 255 3
-0.406798 -0.228180 0.040266 -0.209531 0.420043 -0.882984 121 92 67 255 3
-0.407082 -0.232117 0.038852 -0.232495 0.383958 -0.893601 120 92 67 255 3
-0.407437 -0.236049 0.037305 -0.250475 0.351148 -0.902196 120 92 67 255 3
-0.407722 -0.239978 0.035890 -0.265937 0.320564 -0.909130 116 90 65 255 3
-0.407937 -0.243905 0.034609 -0.285101 0.287566 -0.914343 116 90 66 255 3
-0.408081 -0.247829 0.033461 -0.306274 0.247440 -0.919222 116 88 65 255 3
-0.408155 -0.251753 0.032446 -0.341001 0.188230 -0.921025 114 87 63 255 3
-0.408088 -0.255679 0.031697 -0.384134 0.107940 -0.916946 115 86 63 255 3
-0.407879 -0.259607 0.031213 -0.429899 0.017057 -0.902716 115 84 61 255 3
-0.407671 -0.263534 0.030730 -0.472131 -0.092551 -0.876656 115 82 61 255 3
-0.406967 -0.267481 0.031177 -0.521676 -0.208803 -0.827197 112 79 58 255 3
-0.406050 -0.271439 0.032022 -0.554507 -0.303609 -0.774818 108 76 56 255 3
-0.404920 -0.275409 0.033266 -0.576827 -0.426874 -0.696455 104 73 52 255 3
-0.403365 -0.279405 0.035308 -0.573909 -0.524209 -0.629153 96 67 47 255 3
-0.401029 -0.283449 0.038810 -0.580426 -0.583388 -0.568124 94 65 47 255 3
-0.396706 -0.287615 0.046033 -0.581856 -0.635233 -0.507861 88 66 48 255 3
-0.464427 0.243858 0.045202 -0.563493 0.522990 -0.639498 92 71 52 255 3
-0.465838 0.239290 0.041510 -0.538561 0.444030 -0.716093 101 73 52 255 3
-0.466571 0.234965 0.039155 -0.521189 0.370887 -0.768638 108 76 54 255 3
-0.467170 0.230692 0.037066 -0.481009 0.318526 -0.816806 113 79 57 255 3
-0.467497 0.226517 0.035513 -0.449525 0.204684 -0.869501 115 82 59 255 3
-0.467417 0.222482 0.034760 -0.391635 0.096981 -0.914995 115 85 63 255 3
-0.467066 0.218539 0.034542 -0.319669 -0.040461 -0.946665 115 87 64 255 3
-0.466375 0.214707 0.034992 -0.261327 -0.121516 -0.957571 119 91 67 255 3
-0.465547 0.210917 0.035709 -0.212154 -0.175132 -0.961415 121 90 66 255 3
-0.464720 0.207125 0.036426 -0.164849 -0.215772 -0.962428 121 90 65 255 3
-0.463824 0.203352 0.037276 -0.119081 -0.232252 -0.965339 121 89 64 255 3
-0.462860 0.199597 0.038260 -0.077059 -0.274373 -0.958531 122 89 64 255 3
-0.461827 0.195861 0.039378 -0.027046 -0.334822 -0.941893 121 88 63 255 3
-0.460794 0.192120 0.040495 0.007342 -0.416462 -0.909123 119 88 64 255 3
-0.459079 0.188584 0.042948 0.047731 -0.516757 -0.854801 114 85 61 255 3
-0.457364 0.185040 0.045400 0.080634 -0.590971 -0.802653 113 81 57 255 3
-0.455306 0.181590 0.048520 0.108438 -0.655347 -0.747503 108 73 50 255 3
-0.452703 0.178291 0.052708 0.124173 -0.689360 -0.713697 97 68 48 255 3
-0.406033 -0.208802 0.054358 -0.072163 0.606957 -0.791451 91 75 57 255 3
-0.407509 -0.212765 0.050680 -0.101159 0.578460 -0.809414 101 72 52 255 3
-0.408915 -0.216717 0.047134 -0.106400 0.551898 -0.827096 104 74 52 255 3
-0.409548 -0.220664 0.045053 -0.143899 0.502365 -0.852598 110 82 59 255 3
-0.410182 -0.224604 0.042972 -0.177768 0.443943 -0.878244 116 89 64 255 3
-0.410605 -0.228542 0.041290 -0.203549 0.391384 -0.897433 120 91 66 255 3
-0.410958 -0.232475 0.039741 -0.227032 0.365713 -0.902613 122 92 67 255 3
-0.411241 -0.236406 0.038326 -0.246254 0.336200 -0.909026 118 90 66 255 3
-0.411595 -0.240331 0.036777 -0.265649 0.304724 -0.914644 117 90 66 255 3
-0.411738 -0.244256 0.035628 -0.284559 0.267685 -0.920528 116 90 65 255 3
-0.411811 -0.248180 0.034612 -0.307408 0.216490 -0.926624 116 88 65 255 3
-0.411955 -0.252099 0.033463 -0.338171 0.144349 -0.929948 114 86 63 255 3
-0.411746 -0.256027 0.032979 -0.387932 0.063183 -0.919520 114 85 62 255 3
-0.411466 -0.259956 0.032628 -0.440565 -0.055156 -0.896025 114 83 61 255 3
-0.410834 -0.263898 0.032943 -0.481320 -0.150633 -0.863505 113 81 60 255 3
-0.410130 -0.267844 0.033390 -0.523172 -0.266984 -0.809327 111 78 58 255 3
-0.409003 -0.271811 0.034636 -0.555143 -0.373724 -0.743065 106 74 54 255 3
-0.407733 -0.275788 0.036147 -0.565330 -0.466015 -0.680612 100 71 50 255 3
-0.406039 -0.279792 0.038457 -0.576757 -0.568961 -0.586203 93 66 46 255 3
-0.402929 -0.283879 0.043426 -0.580103 -0.593744 -0.557628 93 66 47 255 3
-0.346869 0.285515 0.285999 -0.432334 0.900161 0.052901 84 70 52 255 3
-0.468718 0.238942 0.044253 -0.555939 0.471149 -0.684800 97 73 52 255 3
-0.469652 0.234547 0.041494 -0.541307 0.420654 -0.728036 104 77 54 255 3
-0.470451 0.230207 0.039002 -0.500581 0.346745 -0.793213 111 79 56 255 3
-0.470912 0.225987 0.037180 -0.447177 0.258196 -0.856369 114 81 60 255 3
-0.471035 0.221886 0.036026 -0.391716 0.124322 -0.911648 115 85 63 255 3
-0.470684 0.217945 0.035808 -0.327001 0.013473 -0.944928 118 88 65 255 3
-0.470129 0.214070 0.035991 -0.263253 -0.096474 -0.959891 119 90 66 255 3
-0.469303 0.210283 0.036708 -0.205680 -0.129721 -0.969984 121 91 67 255 3
-0.468477 0.206493 0.037426 -0.160611 -0.170320 -0.972211 122 91 66 255 3
-0.467650 0.202701 0.038144 -0.112920 -0.192125 -0.974852 121 90 65 255 3
-0.466687 0.198949 0.039129 -0.062600 -0.224667 -0.972423 122 90 64 255 3
-0.465928 0.195130 0.039713 -0.007557 -0.290364 -0.956886 122 90 64 255 3
-0.465169 0.191309 0.040297 0.043723 -0.374778 -0.926083 119 88 64 255 3
-0.463118 0.187881 0.043421 0.078409 -0.486650 -0.870071 114 85 61 255 3
-0.461405 0.184339 0.045876 0.122585 -0.582354 -0.803640 113 83 59 255 3
-0.459624 0.180810 0.048464 0.144527 -0.642481 -0.752549 110 76 53 255 3
-0.457026 0.177515 0.052657 0.163802 -0.688347 -0.706645 105 69 49 255 3
-0.454358 0.174226 0.056982 0.159551 -0.683830 -0.711983 94 71 52 255 3
-0.410481 -0.209179 0.054193 -0.070713 0.611181 -0.788326 101 75 55 255 3
-0.411952 -0.213137 0.050510 -0.087104 0.574582 -0.813799 103 72 50 255 3
-0.413074 -0.217085 0.047494 -0.111568 0.532381 -0.839121 108 77 54 255 3
-0.413565 -0.221029 0.045677 -0.135077 0.482556 -0.865387 113 86 62 255 3
-0.414126 -0.224967 0.043727 -0.164895 0.422410 -0.891279 117 89 65 255 3
-0.414478 -0.228902 0.042177 -0.193127 0.375740 -0.906378 121 92 67 255 3
-0.414829 -0.232833 0.040627 -0.217957 0.344733 -0.913046 120 91 66 255 3
-0.415111 -0.236761 0.039210 -0.241294 0.316999 -0.917218 119 90 66 255 3
-0.415394 -0.240684 0.037794 -0.263332 0.286640 -0.921137 118 90 66 255 3
-0.415465 -0.244609 0.036777 -0.284431 0.246290 -0.926521 117 90 66 255 3
-0.415608 -0.248529 0.035626 -0.311265 0.182648 -0.932606 115 87 64 255 3
-0.415610 -0.252449 0.034743 -0.348827 0.093739 -0.932488 113 85 63 255 3
-0.415330 -0.256377 0.034392 -0.401350 -0.000053 -0.915925 114 84 62 255 3
-0.415050 -0.260304 0.034041 -0.450950 -0.116057 -0.884972 113 82 61 255 3
-0.414207 -0.264253 0.034755 -0.494449 -0.239739 -0.835491 112 80 59 255 3
-0.413152 -0.268213 0.035869 -0.523778 -0.327491 -0.786388 110 77 57 255 3
-0.412026 -0.272180 0.037116 -0.552860 -0.448432 -0.702320 103 73 52 255 3
-0.410405 -0.276174 0.039295 -0.560983 -0.538957 -0.628350 95 68 47 255 3
-0.407937 -0.280219 0.043071 -0.564833 -0.592494 -0.574382 93 65 47 255 3
-0.285246 -0.290746 0.273595 -0.258481 -0.959382 0.113023 79 66 49 255 3
-0.471599 0.238594 0.046996 -0.552960 0.482993 -0.678935 92 73 53 255 3
-0.472800 0.234107 0.043699 -0.539717 0.444160 -0.715142 101 77 53 255 3
-0.473731 0.229721 0.040937 -0.521015 0.389406 -0.759544 110 79 55 255 3
-0.474393 0.225435 0.038711 -0.447723 0.297678 -0.843167 114 81 59 255 3
-0.474583 0.221313 0.037422 -0.403343 0.190274 -0.895048 115 84 62 255 3
-0.474299 0.217351 0.037070 -0.333315 0.081853 -0.939256 118 86 63 255 3
-0.473745 0.213479 0.037254 -0.263644 -0.038694 -0.963844 118 88 64 255 3
-0.473056 0.209649 0.037705 -0.216391 -0.072204 -0.973633 120 89 65 255 3
-0.472298 0.205840 0.038289 -0.150799 -0.123665 -0.980799 121 90 65 255 3
-0.471676 0.201986 0.038607 -0.101559 -0.151542 -0.983220 121 90 65 255 3
-0.471053 0.198130 0.038924 -0.049472 -0.186267 -0.981253 121 90 65 255 3
-0.470363 0.194294 0.039375 -0.006457 -0.228489 -0.973525 120 89 64 255 3
-0.469537 0.190499 0.040093 0.063031 -0.329245 -0.942139 119 89 64 255 3
-0.468236 0.186846 0.041748 0.107469 -0.437152 -0.892944 117 87 62 255 3
-0.465645 0.183578 0.045945 0.139699 -0.559589 -0.816912 115 85 60 255 3
-0.463800 0.180073 0.048671 0.171409 -0.621771 -0.764212 110 80 56 255 3
-0.461275 0.176760 0.052734 0.181014 -0.680608 -0.709934 107 74 52 255 3
-0.458680 0.173455 0.056930 0.204196 -0.686516 -0.697854 103 68 49 255 3
-0.454454 0.170609 0.064337 0.186302 -0.660465 -0.727377 86 73 57 255 3
-0.413385 -0.205590 0.057841 -0.044995 0.645134 -0.762743 95 77 59 255 3
-0.414922 -0.209554 0.054021 -0.074449 0.590735 -0.803424 103 75 54 255 3
-0.416460 -0.213507 0.050202 -0.076890 0.552829 -0.829740 105 74 51 255 3
-0.417299 -0.217452 0.047716 -0.095191 0.514688 -0.852077 108 79 56 255 3
-0.417788 -0.221392 0.045898 -0.129631 0.449705 -0.883720 113 86 62 255 3
-0.418207 -0.225328 0.044213 -0.157883 0.386251 -0.908781 116 89 65 255 3
-0.418417 -0.229262 0.042928 -0.183335 0.350487 -0.918448 118 89 64 255 3
-0.418697 -0.233190 0.041510 -0.208126 0.322507 -0.923403 119 91 66 255 3
-0.418978 -0.237115 0.040091 -0.232375 0.294677 -0.926913 118 90 65 255 3
-0.419118 -0.241039 0.038940 -0.258504 0.263411 -0.929403 118 90 66 255 3
-0.419259 -0.244959 0.037789 -0.293784 0.215581 -0.931244 118 89 65 255 3
