ply
format ascii 1.0
comment Created by labeled_geometry.py
element vertex 643
property float x
property float y
property float z
property float nx
property float ny
property float nz
property uchar red
property uchar green
property uchar blue
property uchar alpha
property uchar label
end_header
0.180736 0.292909 0.359375 -0.675796 0.686626 -0.268038 97 84 63 255 4
0.081467 0.150937 -0.019200 -0.300351 0.659765 -0.688839 112 90 65 255 4
0.081979 0.141464 -0.030412 -0.295993 0.563199 -0.771489 112 93 69 255 4
0.083731 0.133658 -0.037030 -0.265643 0.447713 -0.853807 117 96 71 255 4
0.086124 0.126713 -0.041278 -0.258782 0.360269 -0.896235 123 99 73 255 4
0.089286 0.120776 -0.042709 -0.236143 0.270403 -0.933337 126 100 75 255 4
0.092076 0.114373 -0.045475 -0.224530 0.198498 -0.954036 126 101 75 255 4
0.095066 0.108237 -0.047501 -0.226260 0.161933 -0.960512 127 101 75 255 4
0.098177 0.102264 -0.049081 -0.230254 0.141975 -0.962718 129 104 78 255 4
0.101119 0.096088 -0.051255 -0.228518 0.118365 -0.966317 130 105 77 255 4
0.104140 0.090020 -0.053132 -0.233498 0.100969 -0.967101 130 105 78 255 4
0.107491 0.084370 -0.053824 -0.222623 0.084595 -0.971227 132 107 80 255 4
0.110882 0.078772 -0.054367 -0.216697 0.058828 -0.974465 133 109 82 255 4
0.114104 0.072973 -0.055504 -0.213164 0.031973 -0.976493 134 110 83 255 4
0.117366 0.067227 -0.056492 -0.214297 0.010347 -0.976714 136 111 84 255 4
0.120879 0.061789 -0.056591 -0.216618 -0.003076 -0.976252 135 111 83 255 4
0.124180 0.056099 -0.057431 -0.215350 -0.014938 -0.976423 135 111 84 255 4
0.127521 0.050462 -0.058123 -0.210367 -0.015923 -0.977493 135 113 85 255 4
0.130776 0.044727 -0.059112 -0.205706 -0.002445 -0.978611 135 113 86 255 4
0.134200 0.039194 -0.059507 -0.197327 0.009641 -0.980290 135 113 85 255 4
0.137622 0.033663 -0.059903 -0.186476 0.014862 -0.982347 136 113 86 255 4
0.140872 0.027936 -0.060892 -0.171944 0.015331 -0.984987 137 114 87 255 4
0.144335 0.022458 -0.061139 -0.151146 0.013097 -0.988425 136 114 88 255 4
0.147754 0.016932 -0.061535 -0.130268 0.007546 -0.991450 135 114 87 255 4
0.151086 0.011310 -0.062228 -0.109066 0.000750 -0.994034 135 114 87 255 4
0.154503 0.005787 -0.062624 -0.092284 -0.006252 -0.995713 135 114 86 255 4
0.157918 0.000266 -0.063020 -0.082573 -0.010891 -0.996525 136 115 87 255 4
0.161377 -0.005205 -0.063267 -0.076602 -0.019541 -0.996870 136 115 87 255 4
0.164835 -0.010675 -0.063515 -0.076218 -0.031727 -0.996586 137 114 87 255 4
0.168379 -0.016048 -0.063466 -0.080382 -0.048044 -0.995606 137 113 86 255 4
0.171924 -0.021421 -0.063417 -0.086294 -0.063798 -0.994225 138 113 86 255 4
0.175512 -0.026745 -0.063220 -0.084802 -0.080307 -0.993156 136 113 86 255 4
0.179101 -0.032070 -0.063022 -0.071943 -0.094497 -0.992922 134 111 85 255 4
0.182512 -0.037584 -0.063418 -0.048013 -0.113461 -0.992382 135 110 85 255 4
0.186011 -0.043001 -0.063518 -0.014224 -0.143973 -0.989479 133 108 83 255 4
0.189866 -0.048044 -0.062430 0.016810 -0.169890 -0.985320 131 106 81 255 4
0.193724 -0.053088 -0.061342 0.053414 -0.208428 -0.976578 131 105 80 255 4
0.198122 -0.057578 -0.058472 0.084583 -0.245583 -0.965678 134 106 81 255 4
0.202029 -0.062583 -0.057235 0.105124 -0.287373 -0.952032 133 101 79 255 4
0.206119 -0.067406 -0.055405 0.113498 -0.319184 -0.940872 130 97 75 255 4
0.210347 -0.072096 -0.053128 0.111601 -0.351054 -0.929681 127 93 71 255 4
0.214579 -0.076791 -0.050852 0.113087 -0.383428 -0.916621 127 95 72 255 4
0.218906 -0.081400 -0.048278 0.115038 -0.428847 -0.896022 128 98 74 255 4
0.223328 -0.085924 -0.045407 0.116126 -0.479458 -0.869847 126 98 73 255 4
0.227847 -0.090365 -0.042239 0.133759 -0.531296 -0.836560 126 99 73 255 4
0.232462 -0.094724 -0.038774 0.139447 -0.580953 -0.801903 126 100 74 255 4
0.237314 -0.098867 -0.034566 0.146982 -0.633643 -0.759534 124 99 73 255 4
0.242311 -0.102886 -0.029912 0.149044 -0.670315 -0.726955 124 99 74 255 4
0.247362 -0.106872 -0.025108 0.143573 -0.703093 -0.696453 124 99 74 255 4
0.252606 -0.110693 -0.019711 0.123694 -0.721063 -0.681738 123 99 72 255 4
0.257813 -0.114571 -0.014461 0.101618 -0.719354 -0.687171 123 99 72 255 4
0.262842 -0.118638 -0.009805 0.055575 -0.738430 -0.672036 122 99 72 255 4
0.267925 -0.122672 -0.005000 0.018206 -0.736895 -0.675761 122 98 71 255 4
0.272875 -0.126848 -0.000641 -0.015278 -0.769080 -0.638970 121 97 70 255 4
0.278020 -0.130861 0.004314 -0.042314 -0.790450 -0.611063 120 96 70 255 4
0.283174 -0.134887 0.009268 -0.071442 -0.815802 -0.573902 119 94 68 255 4
0.288336 -0.138924 0.014224 -0.105835 -0.830441 -0.546961 119 92 67 255 4
0.293601 -0.142888 0.019476 -0.139640 -0.832754 -0.535744 119 90 65 255 4
0.299208 -0.146567 0.025770 -0.201071 -0.817397 -0.539844 117 88 63 255 4
0.303965 -0.151024 0.029389 -0.241686 -0.784589 -0.570971 118 88 63 255 4
0.308729 -0.155490 0.033008 -0.297583 -0.746950 -0.594568 119 89 64 255 4
0.313547 -0.159922 0.036777 -0.341546 -0.699181 -0.628086 120 91 65 255 4
0.318322 -0.164404 0.040397 -0.365983 -0.640320 -0.675312 120 91 65 255 4
0.322717 -0.169229 0.042829 -0.386682 -0.585714 -0.712332 123 93 67 255 2
0.326439 -0.174638 0.043179 -0.385147 -0.530713 -0.754987 126 96 69 255 2
0.330356 -0.179883 0.044125 -0.362539 -0.462871 -0.808898 127 97 70 255 2
0.334224 -0.185171 0.044921 -0.318218 -0.397083 -0.860850 128 99 71 255 2
0.338289 -0.190297 0.046313 -0.221386 -0.351648 -0.909578 128 100 72 255 2
0.342112 -0.195629 0.046961 -0.135134 -0.289643 -0.947547 128 102 74 255 2
0.345984 -0.200922 0.047758 -0.055632 -0.249089 -0.966881 128 105 77 255 2
0.349956 -0.206136 0.048852 0.122427 -0.160253 -0.979454 131 107 79 255 2
0.354717 -0.210711 0.052326 0.284614 -0.159798 -0.945230 129 106 77 255 2
0.360620 -0.214377 0.059219 0.419378 -0.141244 -0.896756 125 104 74 255 2
0.368019 -0.216868 0.070575 0.583719 -0.164407 -0.795137 116 98 70 255 2
0.430650 -0.342280 0.032125 0.268486 0.106222 -0.957409 107 83 61 255 2
0.433107 -0.348528 0.028903 0.270148 0.093982 -0.958221 121 95 69 255 2
0.436553 -0.354094 0.028509 0.310490 -0.036542 -0.949874 127 103 75 255 2
0.440261 -0.359483 0.028859 0.335712 -0.123994 -0.933768 124 101 75 255 2
0.444971 -0.364208 0.032037 0.402075 -0.241722 -0.883123 120 92 68 255 2
0.450477 -0.368417 0.037449 0.416419 -0.346741 -0.840456 116 86 60 255 2
0.456787 -0.372121 0.045095 0.418519 -0.374101 -0.827581 111 80 55 255 2
0.462844 -0.376016 0.051997 0.422936 -0.441104 -0.791551 110 84 62 255 2
0.077171 0.158747 -0.000931 -0.291149 0.733406 -0.614286 106 85 63 255 4
0.074863 0.145475 -0.022678 -0.310215 0.637435 -0.705297 110 89 65 255 4
0.075907 0.136706 -0.031970 -0.304924 0.502380 -0.809096 113 94 69 255 4
0.077744 0.129017 -0.038297 -0.274377 0.397734 -0.875514 120 98 73 255 4
0.080585 0.122658 -0.040916 -0.258349 0.305369 -0.916518 124 100 74 255 4
0.083747 0.116726 -0.042349 -0.248252 0.237396 -0.939156 127 101 76 255 4
0.086661 0.110485 -0.044673 -0.228970 0.170512 -0.958383 127 101 76 255 4
0.089816 0.104562 -0.046106 -0.233686 0.142653 -0.961791 129 103 77 255 4
0.092969 0.098643 -0.047539 -0.241499 0.123329 -0.962532 129 104 78 255 4
0.095954 0.092522 -0.049567 -0.243406 0.095257 -0.965235 130 105 78 255 4
0.098976 0.086458 -0.051446 -0.249296 0.078499 -0.965241 132 106 80 255 4
0.102202 0.080656 -0.052583 -0.249349 0.055706 -0.966810 133 108 81 255 4
0.105426 0.074856 -0.053720 -0.239892 0.021776 -0.970555 135 110 83 255 4
0.108690 0.069112 -0.054709 -0.233456 0.001185 -0.972367 136 111 84 255 4
0.112203 0.063674 -0.054808 -0.228749 -0.008239 -0.973451 137 112 84 255 4
0.115673 0.058187 -0.055056 -0.230797 -0.018116 -0.972833 137 112 84 255 4
0.119058 0.052600 -0.055600 -0.229358 -0.022301 -0.973087 137 113 85 255 4
0.122315 0.046864 -0.056589 -0.224596 -0.014815 -0.974339 137 113 85 255 4
0.125528 0.041082 -0.057727 -0.224484 0.000341 -0.974478 137 113 85 255 4
0.128866 0.035452 -0.058420 -0.217676 0.009268 -0.975977 137 114 86 255 4
0.132160 0.029775 -0.059262 -0.207376 0.015940 -0.978131 137 114 87 255 4
0.135537 0.024200 -0.059806 -0.192558 0.017601 -0.981128 138 114 87 255 4
0.138870 0.018577 -0.060499 -0.168662 0.019679 -0.985477 137 114 87 255 4
0.142202 0.012956 -0.061193 -0.144680 0.015601 -0.989356 135 113 86 255 4
0.145576 0.007387 -0.061737 -0.120457 0.010182 -0.992666 135 113 86 255 4
0.148991 0.001867 -0.062134 -0.099856 -0.002024 -0.995000 136 115 87 255 4
0.152406 -0.003650 -0.062530 -0.085884 -0.015794 -0.996180 136 115 87 255 4
0.155819 -0.009166 -0.062927 -0.082406 -0.030852 -0.996121 137 114 87 255 4
0.159363 -0.014537 -0.062878 -0.082776 -0.050353 -0.995295 138 115 87 255 4
0.162906 -0.019907 -0.062829 -0.086196 -0.069510 -0.993850 138 114 87 255 4
0.166492 -0.025229 -0.062632 -0.092710 -0.083337 -0.992200 137 112 85 255 4
0.170079 -0.030551 -0.062435 -0.098601 -0.094514 -0.990629 136 111 85 255 4
0.173666 -0.035873 -0.062237 -0.096251 -0.104985 -0.989805 135 111 85 255 4
0.177208 -0.041242 -0.062188 -0.082250 -0.127836 -0.988379 134 110 84 255 4
0.180751 -0.046610 -0.062140 -0.054963 -0.163295 -0.985045 132 107 82 255 4
0.184248 -0.052025 -0.062239 -0.031700 -0.206234 -0.977989 131 105 80 255 4
0.188102 -0.057067 -0.061151 -0.005154 -0.247752 -0.968810 130 102 77 255 4
0.192271 -0.061787 -0.059022 0.030254 -0.284333 -0.958248 130 102 77 255 4
0.196489 -0.066465 -0.056745 0.055606 -0.325419 -0.943933 132 102 78 255 4
0.200664 -0.071195 -0.054616 0.070833 -0.366411 -0.927753 132 100 77 255 4
0.204843 -0.075929 -0.052487 0.080684 -0.399184 -0.913314 131 99 75 255 4
0.209116 -0.080577 -0.050061 0.083549 -0.436501 -0.895816 129 97 73 255 4
0.213530 -0.085095 -0.047189 0.092273 -0.485243 -0.869497 127 97 73 255 4
0.217993 -0.089574 -0.044167 0.103908 -0.532887 -0.839782 125 97 72 255 4
0.222598 -0.093925 -0.040700 0.107007 -0.574346 -0.811589 123 96 72 255 4
0.227346 -0.098150 -0.036787 0.113848 -0.624079 -0.773022 124 97 72 255 4
0.232284 -0.102205 -0.032279 0.117237 -0.672526 -0.730729 124 98 72 255 4
0.237137 -0.106360 -0.028067 0.119946 -0.709353 -0.694572 124 98 73 255 4
0.242412 -0.110127 -0.022518 0.108823 -0.741165 -0.662444 124 97 72 255 4
0.247790 -0.113819 -0.016671 0.090961 -0.758765 -0.644982 124 98 72 255 4
0.253037 -0.117657 -0.011269 0.059359 -0.773588 -0.630902 122 97 71 255 4
0.258061 -0.121727 -0.006610 0.013743 -0.780007 -0.625619 121 97 70 255 4
0.263279 -0.125635 -0.001356 -0.026625 -0.798006 -0.602061 120 96 70 255 4
0.268506 -0.129554 0.003898 -0.051039 -0.815736 -0.576169 118 95 69 255 4
0.273648 -0.133574 0.008856 -0.078665 -0.834876 -0.544787 118 93 68 255 4
0.278797 -0.137605 0.013814 -0.104405 -0.851489 -0.513873 117 91 66 255 4
0.284285 -0.141348 0.019813 -0.133917 -0.861897 -0.489081 117 89 64 255 4
0.289830 -0.145064 0.025962 -0.187774 -0.854000 -0.485206 118 88 63 255 4
0.295244 -0.148922 0.031665 -0.245885 -0.824373 -0.509852 117 86 61 255 4
0.300143 -0.153258 0.035732 -0.291226 -0.789138 -0.540785 117 86 60 255 4
0.305001 -0.157646 0.039652 -0.336048 -0.743848 -0.577721 118 87 62 255 4
0.309626 -0.162253 0.042828 -0.382951 -0.680421 -0.624800 119 88 63 255 4
0.314017 -0.167076 0.045261 -0.410999 -0.624357 -0.664273 121 90 64 255 4
0.318459 -0.171863 0.047843 -0.435925 -0.565844 -0.699850 122 91 65 255 1
0.322231 -0.177234 0.048342 -0.456444 -0.492147 -0.741249 125 94 67 255 2
0.325955 -0.182646 0.048693 -0.440969 -0.425219 -0.790402 127 95 68 255 2
0.329873 -0.187896 0.049639 -0.415999 -0.343659 -0.841928 128 97 69 255 2
0.333306 -0.193554 0.049098 -0.339312 -0.272848 -0.900234 129 98 71 255 2
0.336593 -0.199333 0.048110 -0.265393 -0.198435 -0.943499 131 100 73 255 2
0.340267 -0.204785 0.048312 -0.103581 -0.155138 -0.982448 130 103 75 255 2
0.344138 -0.210077 0.049109 -0.087406 -0.095864 -0.991549 133 106 78 255 2
0.348157 -0.215251 0.050353 0.177627 -0.105500 -0.978426 132 106 78 255 2
0.352276 -0.220347 0.051894 0.284472 -0.034584 -0.958061 125 102 73 255 2
0.357088 -0.224893 0.055519 0.300270 0.005305 -0.953840 128 106 77 255 2
0.365913 -0.226255 0.071198 0.556504 -0.026153 -0.830433 107 95 72 255 2
0.421301 -0.340590 0.032610 0.237866 0.153073 -0.959160 97 83 63 255 2
0.422878 -0.347443 0.026854 0.243955 0.086380 -0.965932 115 87 62 255 2
0.426113 -0.353145 0.025863 0.261114 0.025340 -0.964975 128 101 73 255 2
0.429608 -0.358669 0.025617 0.291149 -0.012761 -0.956593 128 104 76 255 2
0.433625 -0.363840 0.026860 0.333238 -0.144232 -0.931745 124 102 75 255 2
0.438590 -0.368386 0.030786 0.389129 -0.337507 -0.857128 118 92 67 255 2
0.444192 -0.372525 0.036499 0.412651 -0.391697 -0.822370 116 85 60 255 2
0.450595 -0.376160 0.044448 0.405705 -0.424065 -0.809674 109 79 55 255 2
0.456695 -0.380021 0.051503 0.421377 -0.476358 -0.771702 107 87 64 255 2
0.068366 0.150343 -0.012564 -0.314430 0.680024 -0.662346 114 89 65 255 4
0.068595 0.140446 -0.024979 -0.321301 0.594623 -0.737013 112 91 66 255 4
0.070167 0.132378 -0.032348 -0.304850 0.476539 -0.824607 116 96 71 255 4
0.072009 0.124698 -0.038679 -0.269717 0.350939 -0.896713 122 99 74 255 4
0.075052 0.118608 -0.040559 -0.262752 0.279058 -0.923628 126 102 76 255 4
0.078214 0.112680 -0.041993 -0.243766 0.207713 -0.947329 128 103 77 255 4
0.081332 0.106704 -0.043576 -0.228815 0.147322 -0.962258 128 102 76 255 4
0.084528 0.100837 -0.044862 -0.235012 0.125590 -0.963845 129 103 77 255 4
0.087763 0.095025 -0.046000 -0.241530 0.107691 -0.964399 130 105 79 255 4
0.090750 0.088907 -0.048028 -0.242001 0.079189 -0.967039 131 106 80 255 4
0.093815 0.082897 -0.049760 -0.249473 0.067164 -0.966050 132 107 81 255 4
0.097000 0.077046 -0.051047 -0.244284 0.043707 -0.968718 135 109 83 255 4
0.100225 0.071250 -0.052185 -0.239119 0.012859 -0.970905 136 111 84 255 4
0.103447 0.065457 -0.053324 -0.236590 -0.009823 -0.971560 136 111 84 255 4
0.107000 0.060072 -0.053275 -0.237031 -0.019146 -0.971313 138 112 84 255 4
0.110511 0.054637 -0.053374 -0.234396 -0.022760 -0.971875 138 113 85 255 4
0.113896 0.049052 -0.053919 -0.231814 -0.019557 -0.972563 138 113 85 255 4
0.117070 0.043219 -0.055206 -0.234293 -0.007729 -0.972135 138 113 85 255 4
0.120283 0.037440 -0.056345 -0.234049 0.009698 -0.972176 137 113 85 255 4
0.123620 0.031812 -0.057038 -0.231334 0.017727 -0.972713 137 113 86 255 4
0.126872 0.026089 -0.058029 -0.224418 0.020050 -0.974287 137 114 87 255 4
0.130078 0.020319 -0.059169 -0.210191 0.023942 -0.977367 137 114 87 255 4
0.133326 0.014601 -0.060159 -0.190622 0.028173 -0.981259 137 115 88 255 4
0.136656 0.008984 -0.060853 -0.161865 0.027429 -0.986432 135 114 86 255 4
0.140114 0.003516 -0.061102 -0.134698 0.019699 -0.990691 136 114 87 255 4
0.143486 -0.002049 -0.061647 -0.113286 0.000762 -0.993562 136 114 87 255 4
0.146899 -0.007563 -0.062044 -0.096498 -0.023005 -0.995067 136 113 86 255 4
0.150311 -0.013075 -0.062441 -0.087537 -0.047783 -0.995015 137 113 86 255 4
0.153939 -0.018347 -0.062096 -0.087128 -0.070268 -0.993716 138 114 87 255 4
0.157524 -0.023666 -0.061898 -0.089220 -0.089347 -0.991996 138 113 86 255 4
0.161109 -0.028986 -0.061701 -0.095051 -0.102540 -0.990177 137 112 84 255 4
0.164694 -0.034305 -0.061504 -0.105367 -0.108790 -0.988465 136 111 85 255 4
0.168324 -0.039578 -0.061158 -0.111135 -0.121975 -0.986291 134 110 84 255 4
0.171909 -0.044897 -0.060961 -0.108373 -0.152613 -0.982326 134 110 84 255 4
0.175494 -0.050217 -0.060764 -0.092832 -0.192566 -0.976883 133 108 83 255 4
0.178946 -0.055677 -0.061012 -0.074399 -0.238400 -0.968313 131 104 78 255 4
0.182709 -0.060810 -0.060220 -0.053513 -0.285976 -0.956741 130 102 76 255 4
0.186919 -0.065482 -0.057942 -0.023735 -0.326588 -0.944869 128 99 74 255 4
0.190998 -0.070298 -0.056109 0.001347 -0.374310 -0.927303 129 99 74 255 4
0.195259 -0.074934 -0.053682 0.023928 -0.415130 -0.909447 128 98 73 255 4
0.199480 -0.079622 -0.051403 0.044788 -0.451717 -0.891036 125 96 72 255 4
0.203794 -0.084224 -0.048827 0.054046 -0.495510 -0.866919 124 95 71 255 4
0.208247 -0.088696 -0.045804 0.066569 -0.538885 -0.839745 124 96 72 255 4
0.212751 -0.093130 -0.042632 0.078741 -0.577353 -0.812689 123 95 70 255 4
0.217306 -0.097527 -0.039312 0.082042 -0.626062 -0.775445 122 95 70 255 4
0.222322 -0.101484 -0.034503 0.084354 -0.675846 -0.732199 122 95 70 255 4
0.227300 -0.105498 -0.029844 0.088519 -0.715376 -0.693110 122 95 70 255 4
0.232562 -0.109256 -0.024291 0.085688 -0.757219 -0.647516 121 94 69 255 4
0.237740 -0.113116 -0.019036 0.078254 -0.775660 -0.626281 122 95 70 255 4
0.242973 -0.116945 -0.013631 0.056990 -0.795109 -0.603783 122 96 70 255 4
0.248307 -0.120700 -0.007928 0.018901 -0.810088 -0.586003 120 95 69 255 4
0.253512 -0.124599 -0.002671 -0.019512 -0.825864 -0.563531 119 95 68 255 4
0.258911 -0.128338 0.003181 -0.049792 -0.835311 -0.547518 118 93 67 255 4
0.264180 -0.132220 0.008588 -0.081529 -0.850927 -0.518918 115 91 65 255 4
0.269271 -0.136288 0.013400 -0.105164 -0.865968 -0.488916 115 90 65 255 4
0.275026 -0.139768 0.020296 -0.128023 -0.879360 -0.458624 115 88 64 255 4
0.280699 -0.143350 0.026894 -0.164879 -0.877277 -0.450776 115 85 61 255 4
0.286193 -0.147117 0.032898 -0.219030 -0.854424 -0.471154 115 85 60 255 4
0.291604 -0.150985 0.038605 -0.275663 -0.816257 -0.507676 117 85 60 255 4
0.296454 -0.155371 0.042527 -0.319994 -0.776474 -0.542855 118 85 59 255 4
0.300931 -0.160102 0.045259 -0.367299 -0.723108 -0.584984 118 85 60 255 4
0.305317 -0.164923 0.047693 -0.398305 -0.672835 -0.623416 120 87 61 255 4
0.309755 -0.169709 0.050276 -0.441212 -0.618051 -0.650650 121 89 63 255 4
0.314196 -0.174500 0.052860 -0.482262 -0.552214 -0.680061 122 90 63 255 2
0.317970 -0.179874 0.053360 -0.510646 -0.466821 -0.722024 124 91 64 255 2
0.321743 -0.185248 0.053860 -0.510412 -0.377507 -0.772637 126 93 66 255 2
0.325421 -0.190705 0.054062 -0.500029 -0.278583 -0.819977 127 94 67 255 2
0.328711 -0.196487 0.053073 -0.436993 -0.181756 -0.880910 129 97 69 255 2
0.332048 -0.202225 0.052234 -0.350357 -0.114491 -0.929592 130 98 71 255 2
0.335334 -0.208001 0.051245 -0.248336 -0.077499 -0.965569 130 101 74 255 2
0.338668 -0.213734 0.050405 -0.121770 -0.002531 -0.992555 132 105 76 255 2
0.342146 -0.219344 0.050011 -0.046634 0.013343 -0.998823 135 107 78 255 2
0.345672 -0.224914 0.049767 0.078643 0.036304 -0.996242 133 106 77 255 2
0.349247 -0.230443 0.049671 0.154971 0.127978 -0.979595 126 101 72 255 2
0.353955 -0.235067 0.053000 0.270364 0.106468 -0.956853 125 102 74 255 2
0.359261 -0.239230 0.058117 0.272846 0.129198 -0.953343 98 90 66 255 2
0.413910 -0.345505 0.028375 0.209151 0.160608 -0.964604 111 87 65 255 2
0.416058 -0.351953 0.024254 0.232375 0.071030 -0.970029 122 93 67 255 2
0.419705 -0.357365 0.024454 0.264217 0.020645 -0.964242 131 104 75 255 2
0.423196 -0.362883 0.024208 0.254994 -0.047103 -0.965795 129 105 77 255 2
0.427261 -0.368015 0.025601 0.323047 -0.194760 -0.926126 124 99 73 255 2
0.432113 -0.372628 0.029230 0.394340 -0.335473 -0.855543 117 89 65 255 2
0.438020 -0.376558 0.035842 0.408696 -0.407829 -0.816482 113 81 57 255 2
0.444307 -0.380263 0.043497 0.410231 -0.460252 -0.787324 109 79 55 255 2
0.450817 -0.383850 0.051750 0.420220 -0.497674 -0.758773 106 88 65 255 2
0.157842 0.284345 0.357343 -0.675796 0.686626 -0.268038 89 77 58 255 4
0.062259 0.145518 -0.014269 -0.309044 0.673608 -0.671375 120 91 66 255 4
0.062697 0.135901 -0.025949 -0.310694 0.560955 -0.767332 115 93 68 255 4
0.064475 0.128107 -0.032582 -0.285949 0.464765 -0.837990 117 96 72 255 4
0.066602 0.120804 -0.037878 -0.257367 0.321914 -0.911117 123 100 75 255 4
0.069566 0.114613 -0.040056 -0.248635 0.270150 -0.930161 126 102 76 255 4
0.072727 0.108689 -0.041491 -0.224095 0.194868 -0.954886 129 103 78 255 4
0.075805 0.102666 -0.043224 -0.211815 0.148790 -0.965917 129 103 78 255 4
0.079163 0.097010 -0.043917 -0.210762 0.124528 -0.969573 130 104 78 255 4
0.082480 0.091305 -0.044759 -0.213152 0.105466 -0.971310 132 106 80 255 4
0.085590 0.085345 -0.046343 -0.218723 0.082777 -0.972270 132 107 81 255 4
0.088697 0.079390 -0.047928 -0.233495 0.063435 -0.970287 133 108 82 255 4
0.091842 0.073490 -0.049364 -0.226947 0.036906 -0.973208 135 109 83 255 4
0.095067 0.067696 -0.050504 -0.226754 0.007883 -0.973920 136 110 84 255 4
0.098248 0.061855 -0.051792 -0.228489 -0.009417 -0.973501 136 111 84 255 4
0.101759 0.056421 -0.051891 -0.229920 -0.013066 -0.973122 138 112 85 255 4
0.105270 0.050988 -0.051991 -0.227052 -0.015387 -0.973761 139 113 85 255 4
0.108654 0.045406 -0.052536 -0.226245 -0.010749 -0.974011 138 113 85 255 4
0.111870 0.039626 -0.053676 -0.227964 0.000772 -0.973669 138 113 85 255 4
0.115083 0.033849 -0.054816 -0.233660 0.014699 -0.972207 138 114 87 255 4
0.118379 0.028175 -0.055659 -0.237290 0.023370 -0.971158 137 114 86 255 4
0.121545 0.022355 -0.056948 -0.232504 0.028287 -0.972184 138 114 87 255 4
0.124752 0.016588 -0.058088 -0.222374 0.036494 -0.974278 137 114 87 255 4
0.127999 0.010874 -0.059080 -0.204214 0.043334 -0.977967 136 114 86 255 4
0.131159 0.005065 -0.060369 -0.178147 0.037388 -0.983293 136 114 87 255 4
0.134530 -0.000497 -0.060915 -0.150849 0.018708 -0.988380 137 115 88 255 4
0.137899 -0.006058 -0.061461 -0.125941 -0.012332 -0.991961 137 114 87 255 4
0.141311 -0.011568 -0.061859 -0.107597 -0.042568 -0.993283 137 113 86 255 4
0.144894 -0.016885 -0.061662 -0.098682 -0.064812 -0.993006 138 113 86 255 4
0.148521 -0.022154 -0.061316 -0.092606 -0.090302 -0.991600 138 113 86 255 4
0.152147 -0.027423 -0.060970 -0.092920 -0.108400 -0.989755 138 112 85 255 4
0.155731 -0.032740 -0.060773 -0.097781 -0.119364 -0.988024 138 111 84 255 4
0.159358 -0.038010 -0.060427 -0.107184 -0.128491 -0.985902 137 112 85 255 4
0.162985 -0.043280 -0.060081 -0.117428 -0.149240 -0.981804 134 110 84 255 4
0.166613 -0.048550 -0.059735 -0.121691 -0.179427 -0.976216 134 109 83 255 4
0.170197 -0.053868 -0.059538 -0.118850 -0.220275 -0.968170 131 107 81 255 4
0.173869 -0.059093 -0.059044 -0.107356 -0.275343 -0.955333 131 104 78 255 4
0.177763 -0.064086 -0.057805 -0.092834 -0.319297 -0.943097 130 102 75 255 4
0.181570 -0.069175 -0.056864 -0.068731 -0.364647 -0.928606 129 100 74 255 4
0.185735 -0.073898 -0.054733 -0.049135 -0.419280 -0.906526 128 99 73 255 4
0.190038 -0.078488 -0.052155 -0.018220 -0.460026 -0.887719 125 96 72 255 4
0.194299 -0.083130 -0.049726 -0.000982 -0.504930 -0.863160 123 96 72 255 4
0.198654 -0.087687 -0.047000 0.022391 -0.540480 -0.841059 121 95 71 255 4
0.203059 -0.092205 -0.044124 0.032147 -0.590804 -0.806174 122 95 71 255 4
0.207604 -0.096595 -0.040801 0.042612 -0.629658 -0.775703 121 94 69 255 4
0.212471 -0.100679 -0.036437 0.048088 -0.680818 -0.730872 120 93 68 255 4
0.217300 -0.104818 -0.032221 0.052706 -0.722425 -0.689438 120 93 68 255 4
0.222410 -0.108701 -0.027112 0.052597 -0.759297 -0.648615 119 93 67 255 4
0.227893 -0.112242 -0.020811 0.054249 -0.791342 -0.608962 119 92 67 255 4
0.233020 -0.116151 -0.015701 0.045612 -0.813989 -0.579087 120 93 68 255 4
0.238293 -0.119940 -0.010144 0.021583 -0.832198 -0.554058 119 92 67 255 4
0.243899 -0.123437 -0.003544 -0.010759 -0.848708 -0.528753 118 93 67 255 4
0.249191 -0.127256 0.002014 -0.042574 -0.861719 -0.505596 118 92 66 255 4
0.254539 -0.131044 0.007721 -0.074964 -0.867627 -0.491532 117 91 65 255 4
0.259943 -0.134803 0.013578 -0.102985 -0.877743 -0.467933 115 89 64 255 4
0.265683 -0.138276 0.020478 -0.121949 -0.888853 -0.441666 115 88 63 255 4
0.271480 -0.141723 0.027527 -0.145659 -0.896808 -0.417754 114 86 61 255 4
0.277009 -0.145442 0.033683 -0.194088 -0.880053 -0.433402 113 84 60 255 4
0.282453 -0.149262 0.039543 -0.246753 -0.852628 -0.460585 115 84 59 255 4
0.287860 -0.153138 0.045254 -0.303639 -0.805547 -0.508820 117 85 59 255 4
0.292285 -0.157910 0.047838 -0.346956 -0.762705 -0.545804 117 84 58 255 4
0.296714 -0.162688 0.050422 -0.394290 -0.707862 -0.586060 118 85 59 255 4
0.301099 -0.167513 0.052858 -0.426460 -0.655832 -0.622909 120 85 60 255 4
0.305536 -0.172303 0.055443 -0.461208 -0.610068 -0.644286 120 86 61 255 4
0.309881 -0.177181 0.057731 -0.505474 -0.530723 -0.680315 120 87 60 255 2
0.313608 -0.182599 0.058082 -0.547097 -0.424020 -0.721729 121 89 61 255 2
0.317334 -0.188017 0.058433 -0.559817 -0.319750 -0.764438 122 90 62 255 2
0.320821 -0.193638 0.058040 -0.552376 -0.205863 -0.807776 123 91 63 255 2
0.323583 -0.199866 0.055412 -0.507129 -0.094882 -0.856632 126 93 66 255 2
0.326485 -0.205966 0.053231 -0.445876 -0.024170 -0.894769 127 96 69 255 2
0.329820 -0.211698 0.052390 -0.338818 0.013457 -0.940756 129 99 72 255 2
0.333104 -0.217468 0.051400 -0.239265 0.041681 -0.970059 130 101 73 255 2
0.336240 -0.223354 0.049963 -0.152619 0.098752 -0.983339 134 106 77 255 2
0.339520 -0.229117 0.048973 -0.050532 0.108623 -0.992798 135 106 77 255 2
0.342944 -0.234759 0.048430 -0.004163 0.145130 -0.989404 130 103 75 255 2
0.346368 -0.240399 0.047887 0.056115 0.171998 -0.983498 126 99 72 255 2
0.350825 -0.245219 0.050473 0.188951 0.166471 -0.967773 121 97 68 255 2
0.355285 -0.250044 0.053059 0.210873 0.189730 -0.958924 109 91 64 255 2
0.404946 -0.343569 0.029895 0.189497 0.180955 -0.965063 101 84 64 255 2
0.406174 -0.350659 0.023086 0.189293 0.124138 -0.974042 113 88 64 255 2
0.409612 -0.356208 0.022690 0.209232 0.071660 -0.975237 127 97 71 255 2
0.413411 -0.361508 0.023338 0.242220 -0.019259 -0.970030 129 103 75 255 2
0.416691 -0.367161 0.022494 0.258797 -0.076544 -0.962894 128 103 75 255 2
0.421011 -0.372113 0.024634 0.329740 -0.271376 -0.904227 122 95 69 255 2
0.426117 -0.376551 0.029012 0.358793 -0.374520 -0.854987 116 86 62 255 2
0.432014 -0.380481 0.035627 0.402569 -0.436278 -0.804736 111 81 57 255 2
0.438027 -0.384360 0.042542 0.404134 -0.471964 -0.783534 108 79 55 255 2
0.444945 -0.387675 0.051993 0.423439 -0.501544 -0.754422 99 86 64 255 2
0.056403 0.151290 -0.001617 -0.279242 0.690160 -0.667610 110 85 63 255 4
0.056161 0.140700 -0.015980 -0.293926 0.649388 -0.701357 120 91 66 255 4
0.057006 0.131626 -0.026182 -0.305693 0.561476 -0.768958 117 95 69 255 4
0.058829 0.123894 -0.032671 -0.275086 0.458333 -0.845138 120 99 73 255 4
0.061240 0.116965 -0.036931 -0.235233 0.338108 -0.911235 123 100 75 255 4
0.064085 0.110622 -0.039556 -0.217657 0.274027 -0.936768 126 102 77 255 4
0.067246 0.104703 -0.040993 -0.187714 0.193514 -0.962972 128 103 78 255 4
0.070162 0.098476 -0.043322 -0.166340 0.154437 -0.973900 130 103 78 255 4
0.073519 0.092825 -0.044015 -0.155517 0.131564 -0.979033 131 105 80 255 4
0.076875 0.087175 -0.044709 -0.159081 0.111513 -0.980947 131 106 81 255 4
0.080229 0.081528 -0.045403 -0.173352 0.090233 -0.980718 131 107 81 255 4
0.083541 0.075832 -0.046246 -0.184536 0.066748 -0.980556 132 108 82 255 4
0.086646 0.069885 -0.047832 -0.195060 0.044103 -0.979799 133 109 83 255 4
0.089871 0.064093 -0.048972 -0.197674 0.014289 -0.980164 135 110 83 255 4
0.093012 0.058204 -0.050410 -0.203635 -0.001116 -0.979046 136 111 84 255 4
0.096522 0.052773 -0.050510 -0.209720 0.000250 -0.977761 138 112 84 255 4
0.099948 0.047242 -0.050907 -0.211027 0.000574 -0.977480 139 113 85 255 4
0.103249 0.041562 -0.051751 -0.208890 0.003327 -0.977934 138 113 85 255 4
0.106589 0.035935 -0.052445 -0.217400 0.010674 -0.976024 138 113 86 255 4
0.109845 0.030211 -0.053437 -0.226340 0.018662 -0.973870 137 114 86 255 4
0.113098 0.024490 -0.054430 -0.230414 0.026956 -0.972719 137 114 87 255 4
0.116350 0.018772 -0.055422 -0.233840 0.038607 -0.971508 137 114 87 255 4
0.119557 0.013008 -0.056564 -0.231588 0.053360 -0.971349 137 114 87 255 4
0.122761 0.007247 -0.057705 -0.216895 0.052849 -0.974763 136 114 87 255 4
0.125921 0.001441 -0.058995 -0.195797 0.038434 -0.979891 136 114 87 255 4
0.129036 -0.004410 -0.060435 -0.167512 0.005156 -0.985857 136 114 87 255 4
0.132362 -0.010015 -0.061130 -0.141516 -0.028996 -0.989511 137 114 88 255 4
0.135901 -0.015377 -0.061082 -0.123860 -0.057180 -0.990651 137 114 87 255 4
0.139482 -0.020691 -0.060885 -0.109453 -0.086302 -0.990238 137 114 86 255 4
0.143107 -0.025958 -0.060539 -0.105040 -0.108287 -0.988555 137 113 86 255 4
0.146732 -0.031224 -0.060193 -0.100897 -0.125448 -0.986956 137 112 85 255 4
0.150400 -0.036444 -0.059699 -0.103503 -0.135491 -0.985357 138 113 85 255 4
0.154025 -0.041712 -0.059353 -0.107918 -0.152454 -0.982401 137 112 84 255 4
0.157651 -0.046980 -0.059007 -0.114123 -0.178885 -0.977229 135 111 83 255 4
0.161277 -0.052248 -0.058661 -0.124332 -0.214984 -0.968671 135 110 83 255 4
0.164947 -0.057470 -0.058166 -0.129090 -0.257137 -0.957714 132 107 80 255 4
0.168882 -0.062415 -0.056778 -0.124845 -0.313032 -0.941501 131 105 78 255 4
0.172774 -0.067408 -0.055539 -0.113753 -0.359037 -0.926365 130 102 75 255 4
0.176624 -0.072451 -0.054449 -0.097961 -0.405620 -0.908777 129 100 74 255 4
0.180654 -0.077312 -0.052763 -0.081320 -0.453839 -0.887365 127 99 73 255 4
0.184819 -0.082040 -0.050631 -0.062481 -0.497911 -0.864974 125 97 72 255 4
0.189121 -0.086637 -0.048051 -0.035122 -0.544570 -0.837980 123 96 71 255 4
0.193517 -0.091149 -0.045174 -0.018965 -0.588556 -0.808234 122 95 70 255 4
0.198053 -0.095532 -0.041850 -0.006716 -0.641821 -0.766825 120 93 69 255 4
0.202909 -0.099609 -0.037483 0.005082 -0.685463 -0.728090 120 92 67 255 4
0.207727 -0.103742 -0.033264 0.013744 -0.735559 -0.677321 120 92 67 255 4
0.212506 -0.107929 -0.029195 0.015654 -0.766088 -0.642545 120 92 67 255 4
0.217882 -0.111549 -0.023189 0.019522 -0.799026 -0.600979 119 93 67 255 4
0.223269 -0.115184 -0.017182 0.022797 -0.824078 -0.566018 118 92 66 255 4
0.228345 -0.119141 -0.012217 0.017112 -0.846100 -0.532750 118 92 66 255 4
0.233979 -0.122586 -0.005465 -0.005361 -0.865362 -0.501119 117 91 65 255 4
0.239716 -0.125959 0.001586 -0.034417 -0.878069 -0.477295 115 90 64 255 4
0.245051 -0.129741 0.007297 -0.062391 -0.886694 -0.458128 116 90 64 255 4
0.250487 -0.133450 0.013306 -0.096042 -0.893149 -0.439387 116 90 64 255 4
0.256210 -0.136915 0.020210 -0.121538 -0.897715 -0.423480 114 87 61 255 4
0.261945 -0.140398 0.027114 -0.142557 -0.905967 -0.398625 113 85 61 255 4
0.267552 -0.144025 0.033572 -0.169537 -0.901146 -0.398991 113 84 59 255 4
0.273030 -0.147795 0.039584 -0.215289 -0.881634 -0.419968 113 83 59 255 4
0.278564 -0.151538 0.045745 -0.272604 -0.850226 -0.450336 114 83 58 255 4
0.283733 -0.155633 0.050715 -0.327002 -0.807263 -0.491321 115 84 59 255 4
0.288110 -0.160452 0.053152 -0.383388 -0.754008 -0.533373 115 83 57 255 4
0.292538 -0.165234 0.055738 -0.436646 -0.699319 -0.565945 116 84 58 255 4
0.296923 -0.170065 0.058176 -0.468660 -0.651509 -0.596569 116 84 58 255 4
0.301359 -0.174859 0.060762 -0.501717 -0.592459 -0.630295 116 85 58 255 1
0.305514 -0.179907 0.062455 -0.549071 -0.503529 -0.667067 117 86 59 255 2
0.309241 -0.185327 0.062807 -0.583406 -0.370054 -0.722979 117 87 60 255 2
0.312970 -0.190747 0.063158 -0.591981 -0.295012 -0.750018 119 88 60 255 2
0.316267 -0.196533 0.062168 -0.593517 -0.154027 -0.789945 121 90 62 255 2
0.319033 -0.202760 0.059538 -0.570305 -0.045339 -0.820181 123 92 64 255 2
0.321794 -0.208980 0.056908 -0.513285 0.050607 -0.856725 125 93 66 255 2
0.324551 -0.215193 0.054278 -0.432798 0.077996 -0.898110 126 95 68 255 2
0.327496 -0.221239 0.052244 -0.345015 0.110649 -0.932052 128 98 71 255 2
0.330584 -0.227161 0.050657 -0.220656 0.141033 -0.965101 132 103 74 255 2
0.333766 -0.232999 0.049368 -0.092841 0.161881 -0.982433 133 105 76 255 2
0.336652 -0.239069 0.047184 -0.045513 0.215120 -0.975527 133 106 78 255 2
0.339779 -0.244938 0.045745 0.023029 0.217113 -0.975875 131 105 77 255 2
0.343345 -0.250453 0.045649 0.072230 0.228344 -0.970897 124 100 72 255 2
0.347255 -0.255696 0.046596 0.139556 0.224958 -0.964322 124 97 68 255 2
0.351660 -0.260555 0.049034 0.166881 0.242521 -0.955685 119 94 66 255 2
0.357503 -0.264310 0.055798 0.279272 0.211241 -0.936688 89 82 63 255 2
0.397331 -0.348655 0.024899 0.177724 0.185467 -0.966445 116 89 67 255 2
0.399587 -0.355019 0.021070 0.203111 0.109988 -0.972959 118 92 68 255 2
0.403433 -0.360279 0.021867 0.215196 0.054312 -0.975059 131 102 75 255 2
0.407074 -0.365681 0.022067 0.226379 -0.037520 -0.973316 128 103 76 255 2
0.410352 -0.371327 0.021223 0.266529 -0.132360 -0.954695 124 99 73 255 2
0.414925 -0.376102 0.024110 0.314795 -0.296619 -0.901621 120 91 68 255 2
0.420231 -0.380400 0.029087 0.345419 -0.381164 -0.857555 117 85 62 255 2
0.426067 -0.384366 0.035558 0.387353 -0.470764 -0.792678 110 82 57 255 2
0.432017 -0.388280 0.042327 0.395247 -0.499251 -0.771057 108 80 57 255 2
0.439131 -0.391462 0.052382 0.409641 -0.528065 -0.743869 91 83 64 255 2
0.050068 0.146144 -0.004216 -0.258607 0.675965 -0.690068 124 92 66 255 4
0.050193 0.136048 -0.017250 -0.261672 0.643596 -0.719244 121 93 67 255 4
0.051363 0.127409 -0.026271 -0.255775 0.551124 -0.794255 120 96 71 255 4
0.053191 0.119685 -0.032764 -0.227902 0.430337 -0.873425 122 99 74 255 4
0.055843 0.113077 -0.036135 -0.205780 0.334063 -0.919813 124 101 77 255 4
0.058609 0.106635 -0.039060 -0.184280 0.277228 -0.942966 126 102 77 255 4
0.061650 0.100564 -0.040944 -0.141423 0.209989 -0.967421 127 103 78 255 4
0.064566 0.094343 -0.043274 -0.114308 0.179677 -0.977062 130 104 79 255 4
0.067882 0.088644 -0.044118 -0.106115 0.147709 -0.983322 131 105 80 255 4
0.071155 0.082896 -0.045110 -0.104063 0.121493 -0.987122 132 106 81 255 4
0.074426 0.077152 -0.046102 -0.111852 0.095496 -0.989126 132 107 82 255 4
0.077899 0.071665 -0.046351 -0.121851 0.076854 -0.989569 133 108 83 255 4
0.081412 0.066230 -0.046450 -0.135888 0.053578 -0.989274 134 109 83 255 4
0.084637 0.060442 -0.047592 -0.148504 0.031672 -0.988405 135 110 84 255 4
0.087819 0.054607 -0.048882 -0.158060 0.019853 -0.987230 135 109 83 255 4
0.091246 0.049076 -0.049280 -0.165408 0.014424 -0.986120 137 110 83 255 4
0.094548 0.043398 -0.050124 -0.174577 0.012734 -0.984561 138 111 84 255 4
0.097848 0.037722 -0.050968 -0.184920 0.011903 -0.982681 137 112 85 255 4
0.101147 0.032048 -0.051812 -0.195866 0.015913 -0.980501 137 113 85 255 4
0.104527 0.026476 -0.052359 -0.211775 0.022684 -0.977055 136 113 86 255 4
0.107905 0.020906 -0.052905 -0.219338 0.031862 -0.975129 137 114 87 255 4
0.111157 0.015191 -0.053899 -0.227426 0.046416 -0.972688 137 114 87 255 4
0.114406 0.009478 -0.054892 -0.230542 0.058904 -0.971278 137 114 88 255 4
0.117527 0.003622 -0.056332 -0.227484 0.057830 -0.972063 136 114 87 255 4
0.120645 -0.002229 -0.057773 -0.206943 0.034464 -0.977746 136 114 87 255 4
0.123761 -0.008076 -0.059213 -0.179765 -0.000705 -0.983709 136 114 87 255 4
0.127001 -0.013775 -0.060207 -0.150904 -0.037351 -0.987843 136 113 86 255 4
0.130538 -0.019135 -0.060159 -0.134048 -0.068962 -0.988572 138 114 87 255 4
0.134161 -0.024399 -0.059813 -0.124703 -0.097031 -0.987438 138 113 86 255 4
0.137827 -0.029615 -0.059318 -0.114313 -0.122188 -0.985902 136 112 85 255 4
0.141450 -0.034880 -0.058973 -0.111410 -0.137217 -0.984256 136 111 84 255 4
0.145073 -0.040145 -0.058627 -0.109993 -0.153489 -0.982009 138 113 85 255 4
0.148697 -0.045411 -0.058281 -0.111191 -0.177987 -0.977731 137 113 85 255 4
0.152321 -0.050677 -0.057935 -0.114086 -0.210613 -0.970890 136 112 84 255 4
0.155945 -0.055943 -0.057589 -0.119902 -0.248364 -0.961217 136 110 82 255 4
0.159876 -0.060884 -0.056201 -0.126569 -0.299469 -0.945674 133 106 79 255 4
0.163852 -0.065782 -0.054663 -0.130245 -0.356996 -0.924981 130 103 77 255 4
0.167831 -0.070683 -0.053125 -0.129620 -0.401404 -0.906683 129 101 75 255 4
0.171679 -0.075726 -0.052034 -0.117389 -0.449299 -0.885635 128 101 74 255 4
0.175883 -0.080405 -0.049752 -0.104371 -0.493081 -0.863700 125 98 73 255 4
0.180047 -0.085135 -0.047618 -0.087679 -0.540946 -0.836475 124 98 72 255 4
0.184258 -0.089824 -0.045335 -0.070218 -0.586742 -0.806724 122 96 71 255 4
0.188784 -0.094202 -0.042009 -0.055017 -0.642905 -0.763967 120 94 69 255 4
0.193406 -0.098498 -0.038384 -0.045105 -0.692366 -0.720136 119 92 67 255 4
0.198213 -0.102624 -0.034164 -0.029289 -0.738233 -0.673909 119 91 66 255 4
0.203071 -0.106715 -0.029793 -0.021403 -0.770624 -0.636930 117 90 65 255 4
0.208208 -0.110551 -0.024529 -0.013540 -0.802897 -0.595964 117 90 65 255 4
0.213398 -0.114354 -0.019115 -0.009251 -0.828698 -0.559619 117 91 65 255 4
0.218642 -0.118127 -0.013551 -0.003841 -0.853326 -0.521364 117 91 66 255 4
0.224078 -0.121739 -0.007391 -0.011354 -0.875981 -0.482213 115 90 64 255 4
0.229889 -0.125015 -0.000038 -0.029908 -0.890345 -0.454302 114 89 63 255 4
0.235574 -0.128441 0.006868 -0.052387 -0.899471 -0.433829 115 90 64 255 4
0.241042 -0.132100 0.013030 -0.085337 -0.907645 -0.410973 116 90 63 255 4
0.246750 -0.135558 0.019938 -0.120365 -0.909179 -0.398631 115 88 62 255 4
0.252469 -0.139033 0.026847 -0.147508 -0.914362 -0.377073 114 86 61 255 4
0.258015 -0.142696 0.033159 -0.161795 -0.914304 -0.371308 114 85 60 255 4
0.263571 -0.146374 0.039473 -0.191643 -0.906696 -0.375734 113 83 59 255 4
0.269137 -0.150068 0.045787 -0.237728 -0.884906 -0.400533 112 82 57 255 4
0.274761 -0.153735 0.052250 -0.290652 -0.844731 -0.449390 112 82 58 255 4
0.279600 -0.158132 0.056180 -0.357518 -0.811739 -0.461801 111 82 57 255 4
0.284023 -0.162914 0.058767 -0.435387 -0.748571 -0.500080 112 83 57 255 4
0.288545 -0.167619 0.061654 -0.479094 -0.695749 -0.535166 113 83 57 255 4
0.293024 -0.172372 0.064391 -0.528607 -0.641686 -0.555710 113 84 57 255 4
0.297555 -0.177090 0.067278 -0.568694 -0.576950 -0.586272 114 85 58 255 2
0.301426 -0.182389 0.068077 -0.615940 -0.478751 -0.625631 115 87 59 255 2
0.305156 -0.187812 0.068429 -0.636385 -0.346433 -0.689201 115 87 59 255 2
0.308744 -0.193358 0.068333 -0.642159 -0.241972 -0.727380 116 88 60 255 2
0.311519 -0.199591 0.065702 -0.658082 -0.100202 -0.746249 119 89 62 255 2
0.313953 -0.206098 0.062026 -0.604443 0.008676 -0.796601 121 90 63 255 2
0.316765 -0.212276 0.059543 -0.559489 0.089520 -0.823989 123 92 64 255 2
0.319525 -0.218486 0.056911 -0.502796 0.133229 -0.854076 126 93 65 255 2
0.322328 -0.224649 0.054427 -0.421921 0.166767 -0.891163 128 95 67 255 2
0.325078 -0.230845 0.051795 -0.352106 0.196861 -0.915023 128 98 70 255 2
0.328017 -0.236877 0.049758 -0.245391 0.230304 -0.941670 130 101 72 255 2
0.330758 -0.243060 0.047125 -0.150737 0.260331 -0.953680 131 105 75 255 2
0.333543 -0.249196 0.044641 -0.105978 0.293484 -0.950071 131 106 77 255 2
0.336470 -0.255210 0.042604 0.035539 0.276260 -0.960426 128 104 76 255 2
0.339638 -0.261025 0.041313 0.097480 0.273517 -0.956915 125 101 73 255 2
0.343394 -0.266375 0.041813 0.146812 0.282938 -0.947836 123 97 69 255 2
0.347989 -0.271076 0.044849 0.212408 0.254639 -0.943420 117 96 69 255 2
0.353972 -0.274721 0.052065 0.239793 0.249985 -0.938087 95 84 64 255 2
0.388542 -0.346616 0.026860 0.148649 0.235034 -0.960553 103 81 61 255 2
0.389733 -0.353728 0.019892 0.167545 0.204002 -0.964527 120 91 67 255 2
0.393063 -0.359337 0.019196 0.193324 0.111151 -0.974819 124 98 73 255 2
0.397161 -0.364415 0.020740 0.219092 0.041272 -0.974831 129 102 76 255 2
0.400540 -0.369987 0.020193 0.232702 -0.032794 -0.971995 127 102 76 255 2
0.404177 -0.375382 0.020393 0.282234 -0.211406 -0.935762 123 98 72 255 2
0.408796 -0.380120 0.023431 0.311405 -0.321470 -0.894250 119 90 66 255 2
0.414249 -0.384314 0.028860 0.339307 -0.399865 -0.851457 114 84 60 255 2
0.420074 -0.388281 0.035335 0.376737 -0.474657 -0.795468 109 82 57 255 2
0.426535 -0.391855 0.043603 0.390858 -0.500441 -0.772521 106 80 57 255 2
0.044485 0.152340 0.009641 -0.196893 0.685453 -0.700990 107 89 66 255 4
0.042885 0.139841 -0.010096 -0.209699 0.675331 -0.707075 123 92 65 255 4
0.043292 0.130135 -0.022098 -0.218501 0.599755 -0.769774 123 95 69 255 4
0.045253 0.122564 -0.028149 -0.190929 0.516463 -0.834753 122 97 72 255 4
0.047361 0.115219 -0.033605 -0.181341 0.424268 -0.887194 124 100 75 255 4
0.050292 0.108984 -0.035937 -0.159823 0.347826 -0.923836 124 101 76 255 4
0.053218 0.102755 -0.038269 -0.134850 0.289283 -0.947698 127 103 78 255 4
0.056100 0.096481 -0.040750 -0.094145 0.232334 -0.968069 128 104 79 255 4
0.059017 0.090265 -0.043082 -0.070500 0.198431 -0.977576 130 104 80 255 4
0.062211 0.084416 -0.044373 -0.042338 0.174768 -0.983699 131 105 80 255 4
0.065403 0.078571 -0.045664 -0.046031 0.137946 -0.989370 132 106 81 255 4
0.068672 0.072831 -0.046657 -0.047511 0.107927 -0.993023 133 107 83 255 4
0.072143 0.067349 -0.046906 -0.049263 0.087218 -0.994970 133 108 83 255 4
0.075653 0.061919 -0.047006 -0.063763 0.064782 -0.995860 134 109 83 255 4
0.079121 0.056439 -0.047255 -0.089044 0.043841 -0.995062 135 110 84 255 4
0.082589 0.050960 -0.047504 -0.103813 0.033579 -0.994030 136 110 84 255 4
0.085893 0.045282 -0.048349 -0.113296 0.029348 -0.993128 137 112 85 255 4
0.089153 0.039557 -0.049343 -0.127903 0.021883 -0.991545 137 112 85 255 4
0.092411 0.033834 -0.050337 -0.144941 0.016762 -0.989298 136 112 85 255 4
0.095750 0.028214 -0.051033 -0.165128 0.020051 -0.986068 137 112 86 255 4
0.099129 0.022645 -0.051580 -0.185182 0.027051 -0.982332 136 113 86 255 4
0.102507 0.017078 -0.052128 -0.206261 0.033671 -0.977917 138 114 87 255 4
0.105883 0.011513 -0.052675 -0.221538 0.047393 -0.973999 137 114 87 255 4
0.109091 0.005755 -0.053818 -0.236301 0.060580 -0.969790 137 114 87 255 4
0.112128 -0.000194 -0.055558 -0.234014 0.055612 -0.970641 138 114 87 255 4
0.115204 -0.006091 -0.057148 -0.215128 0.033972 -0.975995 136 114 87 255 4
0.118362 -0.011886 -0.058441 -0.188378 -0.004733 -0.982085 137 114 88 255 4
0.121856 -0.017292 -0.058542 -0.160243 -0.046734 -0.985971 136 113 87 255 4
0.125350 -0.022699 -0.058643 -0.139171 -0.079865 -0.987043 137 113 86 255 4
0.128886 -0.028056 -0.058595 -0.128072 -0.109578 -0.985693 137 113 87 255 4
0.132507 -0.033318 -0.058249 -0.120704 -0.131590 -0.983928 135 113 86 255 4
0.136129 -0.038581 -0.057903 -0.117828 -0.149415 -0.981729 136 113 85 255 4
0.139751 -0.043844 -0.057557 -0.114197 -0.172425 -0.978381 137 114 86 255 4
0.143373 -0.049107 -0.057211 -0.113675 -0.202602 -0.972641 136 113 85 255 4
0.146995 -0.054371 -0.056865 -0.112925 -0.237848 -0.964716 136 111 83 255 4
0.150835 -0.059402 -0.055774 -0.112755 -0.281362 -0.952954 135 110 82 255 4
0.154806 -0.064297 -0.054236 -0.112700 -0.337356 -0.934607 133 106 79 255 4
0.158781 -0.069195 -0.052698 -0.130314 -0.384449 -0.913902 131 103 76 255 4
0.162757 -0.074096 -0.051159 -0.123685 -0.439961 -0.889458 129 102 75 255 4
0.166867 -0.078863 -0.049173 -0.125956 -0.484448 -0.865705 126 100 73 255 4
0.171069 -0.083543 -0.046889 -0.118297 -0.532315 -0.838240 125 99 73 255 4
0.175318 -0.088184 -0.044456 -0.107615 -0.587471 -0.802058 122 96 70 255 4
0.179527 -0.092875 -0.042171 -0.095210 -0.634392 -0.767126 120 94 69 255 4
0.184095 -0.097211 -0.038694 -0.081130 -0.688460 -0.720723 118 91 67 255 4
0.188802 -0.101420 -0.034769 -0.067043 -0.728733 -0.681509 117 90 65 255 4
0.193605 -0.105550 -0.030546 -0.057353 -0.770459 -0.634904 117 89 64 255 4
0.198773 -0.109334 -0.025129 -0.047239 -0.804305 -0.592335 115 89 64 255 4
0.203815 -0.113264 -0.020159 -0.037959 -0.830234 -0.556121 115 89 64 255 4
0.208866 -0.117206 -0.015189 -0.031305 -0.854914 -0.517825 115 89 64 255 4
0.214421 -0.120677 -0.008578 -0.024738 -0.876332 -0.481071 114 89 64 255 4
0.219988 -0.124164 -0.001966 -0.033377 -0.898422 -0.437863 114 90 64 255 4
0.225793 -0.127449 0.005392 -0.049674 -0.910262 -0.411042 114 89 63 255 4
0.231655 -0.130709 0.012900 -0.075604 -0.920531 -0.383284 115 89 63 255 4
0.237347 -0.134160 0.019812 -0.114745 -0.925269 -0.361540 115 89 62 255 4
0.243005 -0.137671 0.026575 -0.149883 -0.924696 -0.349961 114 87 61 255 4
0.248720 -0.141156 0.033488 -0.171409 -0.922851 -0.344913 115 86 60 255 4
0.254215 -0.144871 0.039656 -0.188391 -0.918487 -0.347692 113 83 58 255 4
0.259721 -0.148601 0.045825 -0.214456 -0.910138 -0.354481 113 82 57 255 4
0.265793 -0.151839 0.053784 -0.269466 -0.888199 -0.372143 112 82 57 255 4
0.270763 -0.156106 0.058163 -0.332316 -0.858192 -0.391246 109 81 56 255 4
0.276253 -0.159923 0.064184 -0.423338 -0.804385 -0.416833 109 81 56 255 4
0.280491 -0.164880 0.066177 -0.490992 -0.751115 -0.441309 109 81 56 255 4
0.284733 -0.169841 0.068170 -0.516071 -0.694553 -0.501265 108 80 55 255 4
0.289212 -0.174601 0.070909 -0.567060 -0.634555 -0.525150 107 81 55 255 4
0.293601 -0.179449 0.073350 -0.613506 -0.544464 -0.571987 108 82 55 255 2
0.297286 -0.184916 0.073553 -0.676315 -0.446130 -0.586145 110 84 57 255 2
0.300829 -0.190505 0.073308 -0.685955 -0.362224 -0.631078 111 85 58 255 2
0.304370 -0.196094 0.073063 -0.710792 -0.194109 -0.676089 114 86 59 255 2
0.306912 -0.202529 0.069683 -0.684690 -0.068738 -0.725586 115 86 60 255 2
0.309304 -0.209075 0.065856 -0.675928 0.029559 -0.736375 118 88 61 255 2
0.311737 -0.215571 0.062177 -0.612007 0.103668 -0.784028 122 90 63 255 2
0.314404 -0.221858 0.059244 -0.553953 0.141815 -0.820381 124 91 63 255 2
0.317161 -0.228059 0.056610 -0.511344 0.199968 -0.835787 128 93 64 255 2
0.319866 -0.234291 0.053826 -0.417252 0.227372 -0.879888 128 95 67 255 2
0.322420 -0.240634 0.050594 -0.361063 0.267976 -0.893209 129 99 71 255 2
0.324920 -0.247007 0.047212 -0.274858 0.301265 -0.913068 130 103 74 255 2
0.327559 -0.253254 0.044278 -0.136219 0.314968 -0.939276 131 105 76 255 2
0.330096 -0.259571 0.041045 -0.113093 0.340693 -0.933348 132 106 77 255 2
0.332872 -0.265687 0.038558 0.042574 0.307782 -0.950504 132 106 78 255 2
0.335985 -0.271528 0.037116 0.090895 0.321230 -0.942629 128 102 74 255 2
0.339489 -0.277061 0.036869 0.167231 0.289580 -0.942431 121 98 71 255 2
0.343978 -0.281833 0.039609 0.225973 0.281511 -0.932571 119 98 71 255 2
0.349359 -0.285934 0.045037 0.235810 0.269839 -0.933585 100 87 64 255 2
0.380910 -0.351729 0.021698 0.153946 0.244145 -0.957441 116 86 63 255 2
0.382459 -0.358578 0.015771 0.171526 0.205886 -0.963426 126 94 70 255 2
0.386549 -0.363647 0.017315 0.211154 0.091960 -0.973117 128 100 75 255 2
0.390488 -0.368826 0.018412 0.230164 -0.006615 -0.973129 130 104 77 255 2
0.393864 -0.374390 0.017864 0.250478 -0.129699 -0.959395 128 102 76 255 2
0.397959 -0.379467 0.019409 0.289082 -0.261530 -0.920887 123 96 71 255 2
0.402726 -0.384098 0.022898 0.307087 -0.349964 -0.884999 119 90 65 255 2
0.408222 -0.388257 0.028479 0.340970 -0.422913 -0.839573 110 83 58 255 2
0.414089 -0.392191 0.035107 0.358356 -0.503245 -0.786336 110 83 58 255 2
0.420954 -0.395495 0.044577 0.382737 -0.521327 -0.762713 100 82 59 255 2
0.035599 0.143691 -0.002787 -0.170378 0.681616 -0.711597 126 96 70 255 4
0.035606 0.133392 -0.016435 -0.172312 0.662959 -0.728556 119 89 64 255 4
0.037074 0.125130 -0.024425 -0.155050 0.587174 -0.794472 124 96 70 255 4
0.038880 0.117360 -0.031076 -0.145943 0.505719 -0.850264 123 97 71 255 4
0.041344 0.110496 -0.035196 -0.119358 0.423280 -0.898102 124 100 75 255 4
0.044274 0.104269 -0.037530 -0.111094 0.360074 -0.926286 126 102 77 255 4
0.047159 0.097996 -0.040013 -0.080463 0.293713 -0.952501 128 103 79 255 4
0.050239 0.091988 -0.041751 -0.057659 0.255047 -0.965208 128 104 80 255 4
0.053395 0.086088 -0.043192 -0.033064 0.215742 -0.975890 131 105 81 255 4
0.056508 0.080141 -0.044781 -0.002634 0.183755 -0.982969 132 106 81 255 4
0.059658 0.074250 -0.046222 0.002084 0.149407 -0.988774 133 107 82 255 4
0.062926 0.068516 -0.047217 0.013488 0.113222 -0.993478 133 108 83 255 4
0.066435 0.063089 -0.047317 0.000145 0.093245 -0.995643 134 108 83 255 4
0.069942 0.057664 -0.047418 -0.009302 0.067369 -0.997685 133 109 83 255 4
0.073409 0.052188 -0.047667 -0.026151 0.054228 -0.998186 134 110 84 255 4
0.076874 0.046714 -0.047917 -0.046980 0.043953 -0.997928 135 110 84 255 4
0.080339 0.041241 -0.048166 -0.066649 0.036737 -0.997100 135 111 85 255 4
0.083763 0.035719 -0.048565 -0.085148 0.025322 -0.996046 136 112 85 255 4
0.087020 0.030000 -0.049560 -0.104742 0.018281 -0.994331 136 112 85 255 4
0.090400 0.024432 -0.050108 -0.131614 0.016583 -0.991162 136 112 86 255 4
0.093778 0.018867 -0.050655 -0.160848 0.018708 -0.986802 135 112 86 255 4
0.097196 0.013352 -0.051054 -0.186293 0.026800 -0.982129 136 113 86 255 4
0.100447 0.007643 -0.052050 -0.214233 0.042208 -0.975870 136 112 85 255 4
0.103571 0.001791 -0.053492 -0.233596 0.054499 -0.970805 137 112 86 255 4
0.106692 -0.004057 -0.054935 -0.235715 0.050201 -0.970525 138 113 86 255 4
0.109768 -0.009949 -0.056526 -0.224561 0.029515 -0.974013 137 113 86 255 4
0.113221 -0.015403 -0.056777 -0.200947 -0.004750 -0.979591 137 114 87 255 4
0.116714 -0.020808 -0.056878 -0.174086 -0.042790 -0.983800 136 113 86 255 4
0.120207 -0.026212 -0.056979 -0.146996 -0.085809 -0.985408 137 113 86 255 4
0.123615 -0.031711 -0.057379 -0.123922 -0.117133 -0.985354 137 113 87 255 4
