ply
format ascii 1.0
comment Created by labeled_geometry.py
element vertex 649
property float x
property float y
property float z
property float nx
property float ny
property float nz
property uchar red
property uchar green
property uchar blue
property uchar alpha
property uchar label
end_header
0.599926 -0.154781 0.072498 -0.373017 0.343584 -0.861863 122 92 65 255 3
0.594718 -0.152642 0.076925 -0.368053 0.362977 -0.856028 122 91 64 255 3
0.589497 -0.150505 0.081354 -0.368053 0.362977 -0.856028 119 89 63 255 3
0.585444 -0.145249 0.089638 -0.362278 0.367904 -0.856389 119 89 63 255 3
0.423119 -0.037649 0.282789 -0.296931 -0.913598 0.277796 99 76 57 255 3
0.333623 -0.305870 -0.052027 0.213291 0.370703 -0.903928 117 84 62 255 3
0.325637 -0.312793 -0.058984 0.056996 0.308477 -0.949523 113 81 59 255 3
0.318943 -0.315567 -0.060736 -0.061620 0.230269 -0.971174 114 83 62 255 3
0.312492 -0.317570 -0.061519 -0.092839 0.192169 -0.976961 115 84 64 255 3
0.306220 -0.318994 -0.061576 -0.201825 0.077954 -0.976314 116 82 61 255 3
0.300296 -0.319261 -0.060178 -0.221629 0.042503 -0.974204 116 82 61 255 3
0.294340 -0.319626 -0.058901 -0.291662 -0.024388 -0.956211 115 81 60 255 3
0.288438 -0.319799 -0.057382 -0.332936 -0.080218 -0.939531 113 79 59 255 3
0.282730 -0.319298 -0.055014 -0.390331 -0.129269 -0.911554 112 78 58 255 3
0.277043 -0.318703 -0.052524 -0.432317 -0.170166 -0.885520 111 77 58 255 3
0.271350 -0.318108 -0.050033 -0.490372 -0.226533 -0.841557 111 76 57 255 3
0.265898 -0.316650 -0.046450 -0.551778 -0.275921 -0.787025 111 75 55 255 3
0.260462 -0.315097 -0.042745 -0.601948 -0.305678 -0.737712 109 73 53 255 3
0.255043 -0.313450 -0.038917 -0.660225 -0.344160 -0.667576 108 71 50 255 3
0.249746 -0.311325 -0.034482 -0.708445 -0.374865 -0.597981 106 70 49 255 3
0.244649 -0.308434 -0.029074 -0.754892 -0.397919 -0.521343 104 69 49 255 3
0.239535 -0.305546 -0.023665 -0.780906 -0.426801 -0.456100 101 68 49 255 3
0.234457 -0.302469 -0.018011 -0.804517 -0.466304 -0.367850 96 65 46 255 3
0.229804 -0.297764 -0.010292 -0.843746 -0.468705 -0.261549 92 65 45 255 3
0.225176 -0.292872 -0.002327 -0.845859 -0.477784 -0.237159 88 62 43 255 3
0.221266 -0.285206 0.009163 -0.862025 -0.474749 -0.177558 83 60 42 255 3
-0.240590 -0.360720 0.044504 -0.561426 0.668084 0.488329 91 70 50 255 2
-0.247460 -0.367931 0.036828 0.401495 -0.754728 -0.518833 101 74 51 255 2
-0.253811 -0.370285 0.035541 0.290305 -0.795128 -0.532443 103 72 49 255 2
-0.260174 -0.372825 0.034007 0.210639 -0.814030 -0.541282 106 73 50 255 2
-0.266396 -0.373966 0.034317 0.114391 -0.876710 -0.467219 107 75 52 255 2
-0.272572 -0.374640 0.035242 0.027819 -0.888953 -0.457154 104 75 52 255 2
-0.278638 -0.374103 0.037767 -0.044231 -0.892930 -0.448017 102 76 54 255 2
-0.284695 -0.373380 0.040537 -0.098097 -0.909033 -0.405014 100 76 54 255 2
-0.290629 -0.371169 0.045277 -0.159248 -0.909552 -0.383868 90 72 53 255 2
-0.277566 -0.145843 0.344988 -0.217558 0.893385 -0.393106 75 69 53 255 2
0.752954 0.004395 0.253169 0.064450 -0.669463 -0.740045 104 93 73 255 3
0.680769 -0.155430 0.058661 -0.077485 0.244980 -0.966427 123 102 79 255 3
0.673462 -0.158662 0.056466 -0.065670 0.255724 -0.964517 133 105 79 255 3
0.666285 -0.161599 0.054631 -0.062556 0.261082 -0.963288 131 102 76 255 3
0.659433 -0.163753 0.053759 -0.069429 0.273730 -0.959297 128 99 74 255 3
0.653377 -0.163951 0.055293 -0.080221 0.289871 -0.953698 126 98 74 255 3
0.646925 -0.165126 0.055623 -0.093076 0.294273 -0.951178 127 99 73 255 3
0.640474 -0.166301 0.055954 -0.125604 0.291701 -0.948227 127 99 72 255 3
0.634295 -0.166793 0.057128 -0.152501 0.300381 -0.941549 130 100 73 255 3
0.628115 -0.167285 0.058301 -0.190486 0.305861 -0.932826 129 98 71 255 3
0.621932 -0.167777 0.059475 -0.214307 0.319606 -0.922997 129 98 71 255 3
0.615862 -0.167977 0.061010 -0.252825 0.338655 -0.906307 125 97 70 255 3
0.610168 -0.167202 0.063751 -0.265197 0.355251 -0.896363 124 95 67 255 3
0.604391 -0.166623 0.066252 -0.298651 0.401326 -0.865878 124 93 66 255 3
0.599134 -0.164680 0.070440 -0.325516 0.403075 -0.855319 122 90 63 255 3
0.594050 -0.162253 0.075233 -0.320931 0.399265 -0.858831 119 87 61 255 3
0.589101 -0.159438 0.080509 -0.336808 0.392673 -0.855785 112 82 58 255 3
0.585317 -0.153509 0.089646 -0.343933 0.390123 -0.854116 103 79 55 255 3
0.467855 -0.228969 0.022610 0.253007 0.327774 -0.910248 90 81 62 255 3
0.460124 -0.234101 0.017975 0.252588 0.336341 -0.907234 94 82 64 255 3
0.452678 -0.238455 0.014306 0.247068 0.346184 -0.905049 96 83 64 255 3
0.445380 -0.242420 0.011119 0.232948 0.362006 -0.902600 96 81 62 255 3
0.438127 -0.246286 0.008052 0.227391 0.369397 -0.901021 95 79 60 255 3
0.430854 -0.250246 0.004863 0.227263 0.371563 -0.900162 95 77 57 255 3
0.423368 -0.254882 0.000825 0.238011 0.370928 -0.897643 97 78 58 255 3
0.416123 -0.258838 -0.002366 0.245470 0.376606 -0.893259 96 78 59 255 3
0.408988 -0.262503 -0.005196 0.252667 0.381035 -0.889366 95 78 59 255 3
0.401865 -0.266165 -0.008027 0.226861 0.399350 -0.888287 90 76 59 255 3
0.394943 -0.269247 -0.010132 0.239186 0.401037 -0.884285 84 73 57 255 3
0.429917 -0.045365 0.282006 -0.327163 -0.913861 0.240463 94 75 55 255 3
0.339011 -0.315532 -0.056044 0.168091 0.380591 -0.909338 94 75 55 255 3
0.330634 -0.323697 -0.064586 -0.011817 0.256212 -0.966548 111 79 58 255 3
0.324308 -0.325312 -0.064887 -0.101841 0.217797 -0.970666 112 81 62 255 3
0.318133 -0.326445 -0.064581 -0.151188 0.161243 -0.975265 114 83 62 255 3
0.312046 -0.327289 -0.063911 -0.215688 0.092093 -0.972110 115 83 62 255 3
0.306163 -0.327460 -0.062393 -0.268638 0.044223 -0.962225 115 81 61 255 3
0.300304 -0.327536 -0.060752 -0.326092 -0.038030 -0.944573 115 81 61 255 3
0.294500 -0.327419 -0.058869 -0.351517 -0.070032 -0.933558 113 79 58 255 3
0.288832 -0.326824 -0.056378 -0.395525 -0.130374 -0.909155 113 77 57 255 3
0.283187 -0.326133 -0.053766 -0.436225 -0.166377 -0.884323 113 77 57 255 3
0.277505 -0.325539 -0.051274 -0.482986 -0.230473 -0.844752 110 75 55 255 3
0.271984 -0.324371 -0.048053 -0.540616 -0.281907 -0.792631 110 74 55 255 3
0.266564 -0.322820 -0.044345 -0.588612 -0.314817 -0.744598 110 72 53 255 3
0.261132 -0.321272 -0.040637 -0.642983 -0.356166 -0.678025 107 70 50 255 3
0.255744 -0.319533 -0.036684 -0.692701 -0.385016 -0.609860 106 69 49 255 3
0.250640 -0.316741 -0.031394 -0.731314 -0.406457 -0.547697 105 69 49 255 3
0.245546 -0.313857 -0.025981 -0.766756 -0.437021 -0.470211 102 68 49 255 3
0.240436 -0.310975 -0.020567 -0.795520 -0.475446 -0.375631 97 67 48 255 3
0.235781 -0.306372 -0.012963 -0.830478 -0.478107 -0.285865 92 64 45 255 3
0.231076 -0.301869 -0.005478 -0.838484 -0.487431 -0.243631 88 62 43 255 3
0.227018 -0.294883 0.005170 -0.850682 -0.488796 -0.193438 86 60 42 255 3
0.223618 -0.285319 0.019105 -0.861817 -0.485063 -0.148273 72 59 42 255 3
-0.245808 -0.367307 0.047932 0.431263 -0.792147 -0.431875 91 71 50 255 2
-0.252579 -0.373666 0.041352 0.270853 -0.842664 -0.465356 100 72 49 255 2
-0.258909 -0.375832 0.040309 0.209720 -0.869756 -0.446701 97 69 47 255 2
-0.265053 -0.376135 0.041727 0.113304 -0.883900 -0.453744 96 67 45 255 2
-0.271156 -0.375973 0.043761 0.057936 -0.907715 -0.415569 97 70 49 255 2
-0.277101 -0.374044 0.048135 -0.038972 -0.916557 -0.398001 90 72 52 255 2
-0.282664 -0.367747 0.058299 -0.092165 -0.936784 -0.337553 77 72 54 255 2
0.754329 -0.158084 0.044212 -0.113422 -0.285267 -0.951713 90 82 63 255 0
0.748051 -0.158866 0.045023 -0.128597 -0.152772 -0.979859 112 94 72 255 3
0.741858 -0.159452 0.046075 -0.162201 -0.155076 -0.974496 119 97 76 255 3
0.735663 -0.160039 0.047126 -0.168834 -0.121877 -0.978080 116 97 75 255 3
0.729718 -0.160037 0.048900 -0.149055 -0.090883 -0.984644 117 96 75 255 3
0.723393 -0.160918 0.049591 -0.123114 -0.074022 -0.989628 116 95 74 255 3
0.717275 -0.161310 0.050884 -0.136055 -0.027509 -0.990319 111 91 72 255 3
0.711238 -0.161506 0.052417 -0.133068 0.038615 -0.990354 111 91 71 255 3
0.704868 -0.162485 0.052988 -0.115677 0.044821 -0.992275 117 96 74 255 3
0.697882 -0.164932 0.051754 -0.099684 0.095535 -0.990422 128 104 78 255 3
0.691270 -0.166498 0.051602 -0.088564 0.119350 -0.988894 138 109 83 255 3
0.684660 -0.168064 0.051451 -0.074836 0.133888 -0.988167 139 112 84 255 3
0.678538 -0.168456 0.052744 -0.055703 0.152015 -0.986807 135 106 80 255 3
0.671609 -0.170803 0.051628 -0.051929 0.170202 -0.984040 129 101 76 255 3
0.664966 -0.172465 0.051356 -0.044517 0.187136 -0.981325 130 100 74 255 3
0.658565 -0.173540 0.051805 -0.053945 0.211430 -0.975903 131 99 74 255 3
0.652322 -0.174226 0.052737 -0.071124 0.204520 -0.976275 130 100 75 255 3
0.645842 -0.175496 0.052946 -0.086665 0.210164 -0.973817 131 99 73 255 3
0.639364 -0.176767 0.053155 -0.098158 0.219064 -0.970760 126 96 70 255 3
0.633003 -0.177745 0.053725 -0.117079 0.245022 -0.962422 125 96 70 255 3
0.626797 -0.178333 0.054777 -0.121973 0.267911 -0.955691 123 94 68 255 3
0.620474 -0.179214 0.055468 -0.134454 0.304316 -0.943034 124 95 69 255 3
0.614112 -0.180192 0.056039 -0.143413 0.344306 -0.927839 124 95 69 255 3
0.608017 -0.180489 0.057454 -0.137166 0.358774 -0.923291 125 96 69 255 3
0.601994 -0.180591 0.059110 -0.156450 0.392942 -0.906157 122 90 62 255 3
0.595855 -0.180986 0.060405 -0.141535 0.426679 -0.893260 122 88 61 255 3
0.589488 -0.181965 0.060975 -0.125729 0.463732 -0.877009 120 86 61 255 3
0.582526 -0.184499 0.059615 -0.059291 0.432141 -0.899855 120 86 61 255 3
0.575498 -0.187228 0.058012 0.012192 0.395314 -0.918465 109 82 57 255 3
0.568477 -0.189954 0.056409 0.044622 0.388459 -0.920385 99 80 57 255 3
0.561427 -0.192777 0.054684 0.083561 0.300643 -0.950069 101 80 59 255 3
0.554276 -0.195890 0.052596 0.111833 0.301818 -0.946784 99 80 60 255 3
0.546990 -0.199390 0.050024 0.134954 0.306011 -0.942414 99 79 59 255 3
0.539715 -0.202888 0.047451 0.163088 0.280117 -0.946011 101 80 60 255 3
0.532451 -0.206385 0.044877 0.186907 0.280090 -0.941602 102 81 60 255 3
0.525056 -0.210268 0.041818 0.206757 0.272664 -0.939631 106 83 62 255 3
0.517604 -0.214342 0.038517 0.222047 0.266716 -0.937847 110 86 63 255 3
0.510165 -0.218415 0.035214 0.236199 0.270084 -0.933415 113 87 64 255 3
0.502670 -0.222679 0.031669 0.248273 0.273870 -0.929169 113 87 64 255 3
0.494981 -0.227522 0.027396 0.255516 0.276311 -0.926479 117 88 66 255 3
0.487310 -0.232362 0.023122 0.262424 0.285105 -0.921872 118 89 65 255 3
0.479759 -0.236910 0.019209 0.262392 0.296527 -0.918271 118 89 65 255 3
0.472257 -0.241358 0.015416 0.265257 0.302745 -0.915415 118 88 65 255 3
0.464669 -0.246094 0.011258 0.261834 0.312763 -0.913029 119 89 65 255 3
0.457266 -0.250344 0.007704 0.261231 0.322387 -0.909849 118 88 64 255 3
0.449877 -0.254592 0.004149 0.256922 0.338496 -0.905214 121 90 65 255 3
0.442535 -0.258741 0.000714 0.254419 0.342681 -0.904346 123 90 65 255 3
0.435044 -0.263371 -0.003328 0.254303 0.340394 -0.905241 124 90 65 255 3
0.427633 -0.267805 -0.007130 0.265172 0.348435 -0.899042 124 89 64 255 3
0.420271 -0.272140 -0.010811 0.281483 0.344485 -0.895599 122 88 63 255 3
0.412794 -0.276859 -0.014979 0.294677 0.346950 -0.890388 119 85 62 255 3
0.405334 -0.281576 -0.019148 0.269802 0.356254 -0.894589 117 84 61 255 3
0.397955 -0.286097 -0.023076 0.275503 0.366587 -0.888657 112 82 60 255 3
0.390559 -0.290712 -0.027127 0.288511 0.370875 -0.882730 110 81 61 255 3
0.383400 -0.294650 -0.030331 0.293442 0.373467 -0.880008 108 81 62 255 3
0.376223 -0.298682 -0.033657 0.292860 0.392235 -0.872000 108 84 64 255 3
0.370579 -0.297994 -0.031042 0.281157 0.409605 -0.867857 108 84 64 255 3
0.365205 -0.296441 -0.027335 0.277935 0.419844 -0.863993 99 80 60 255 3
0.344005 -0.326334 -0.061532 0.172639 0.342436 -0.923544 111 78 56 255 3
0.336288 -0.332371 -0.067415 0.045995 0.257028 -0.965309 115 78 55 255 3
0.330091 -0.333598 -0.067231 -0.107280 0.176501 -0.978437 113 82 62 255 3
0.323866 -0.334921 -0.067170 -0.173060 0.111968 -0.978526 114 83 64 255 3
0.317819 -0.335668 -0.066379 -0.250363 0.046722 -0.967024 113 82 61 255 3
0.312153 -0.335166 -0.064011 -0.303626 0.023902 -0.952491 112 80 61 255 3
0.306393 -0.334954 -0.062006 -0.344701 -0.032551 -0.938148 114 79 60 255 3
0.300599 -0.334838 -0.060122 -0.361088 -0.072110 -0.929740 113 78 58 255 3
0.294916 -0.334339 -0.057751 -0.415970 -0.134048 -0.899444 112 77 57 255 3
0.289282 -0.333649 -0.055138 -0.451400 -0.180924 -0.873787 111 75 56 255 3
0.283613 -0.333056 -0.052645 -0.483064 -0.235433 -0.843339 110 73 55 255 3
0.278078 -0.331986 -0.049543 -0.534286 -0.288265 -0.794633 109 73 54 255 3
0.272673 -0.330437 -0.045834 -0.578696 -0.322470 -0.749082 107 70 51 255 3
0.267256 -0.328890 -0.042123 -0.630594 -0.366109 -0.684335 107 69 49 255 3
0.261856 -0.327249 -0.038289 -0.671519 -0.386709 -0.632075 104 67 47 255 3
0.256716 -0.324653 -0.033239 -0.716228 -0.419008 -0.558077 103 67 47 255 3
0.251588 -0.321964 -0.028065 -0.752778 -0.448582 -0.481768 101 66 47 255 3
0.246443 -0.319277 -0.022890 -0.781534 -0.487095 -0.389799 96 65 47 255 3
0.241760 -0.314872 -0.015524 -0.820717 -0.486837 -0.299022 93 65 46 255 3
0.237106 -0.310279 -0.007912 -0.830271 -0.492213 -0.261487 87 62 44 255 3
0.232818 -0.304257 0.001528 -0.839501 -0.504927 -0.200714 85 61 43 255 3
0.229199 -0.295661 0.014258 -0.850103 -0.503411 -0.154600 77 61 44 255 3
-0.257206 -0.374476 0.052407 0.225545 -0.868658 -0.441092 80 67 49 255 2
-0.263400 -0.375154 0.053334 0.181326 -0.887933 -0.422724 87 68 49 255 2
-0.269241 -0.372116 0.059192 0.100775 -0.923282 -0.370667 79 69 52 255 2
0.765350 -0.167398 0.039317 -0.042787 -0.493738 -0.868557 88 81 63 255 0
0.758483 -0.169550 0.038443 -0.096737 -0.370206 -0.923899 137 103 77 255 3
0.752566 -0.169546 0.040215 -0.106581 -0.296243 -0.949147 139 106 80 255 3
0.746560 -0.169739 0.041747 -0.142568 -0.278097 -0.949914 139 106 80 255 3
0.740464 -0.170128 0.043039 -0.138611 -0.180530 -0.973753 135 104 80 255 3
0.734324 -0.170615 0.044210 -0.147030 -0.149139 -0.977824 134 105 80 255 3
0.728098 -0.171298 0.045141 -0.145798 -0.099560 -0.984292 134 105 79 255 3
0.721828 -0.172080 0.045951 -0.127741 -0.089465 -0.987764 136 106 80 255 3
0.715600 -0.172763 0.046882 -0.112510 -0.079967 -0.990428 137 107 82 255 3
0.709245 -0.173740 0.047452 -0.097378 -0.084048 -0.991692 135 106 82 255 3
0.703014 -0.174424 0.048383 -0.088666 -0.039592 -0.995274 133 107 82 255 3
0.696741 -0.175206 0.049194 -0.091669 -0.005263 -0.995776 132 107 80 255 3
0.690508 -0.175890 0.050125 -0.060347 0.016676 -0.998038 132 105 79 255 3
0.684274 -0.176575 0.051057 -0.033964 0.038815 -0.998669 133 103 77 255 3
0.677715 -0.178040 0.051024 -0.014091 0.050928 -0.998603 134 101 75 255 3
0.671158 -0.179505 0.050991 -0.014992 0.060015 -0.998085 136 102 75 255 3
0.664483 -0.181262 0.050596 -0.020899 0.051421 -0.998458 139 102 74 255 3
0.657772 -0.183116 0.050080 -0.025272 0.064022 -0.997628 137 100 72 255 3
0.651461 -0.183995 0.050770 -0.037719 0.070692 -0.996785 134 98 71 255 3
0.645188 -0.184777 0.051580 -0.053790 0.105552 -0.992958 129 96 70 255 3
0.638523 -0.186533 0.051185 -0.055495 0.119926 -0.991231 129 96 70 255 3
0.631940 -0.188093 0.051030 -0.048170 0.141791 -0.988724 121 92 67 255 3
0.625165 -0.190140 0.050271 -0.030065 0.176601 -0.983823 121 92 67 255 3
0.618818 -0.191115 0.050840 -0.033053 0.195919 -0.980063 121 92 67 255 3
0.612395 -0.192286 0.051167 -0.052348 0.237260 -0.970035 120 92 66 255 3
0.605859 -0.193747 0.051132 -0.048802 0.251592 -0.966602 121 93 65 255 3
0.599287 -0.195306 0.050977 -0.033490 0.264158 -0.963898 122 93 65 255 3
0.592642 -0.197059 0.050579 -0.004325 0.227569 -0.973752 122 92 65 255 3
0.586487 -0.197548 0.051751 0.021354 0.241787 -0.970094 119 87 62 255 3
0.579697 -0.199688 0.050870 0.049795 0.256669 -0.965216 117 84 60 255 3
0.572728 -0.202313 0.049384 0.079876 0.267250 -0.960311 117 84 60 255 3
0.565949 -0.204451 0.048501 0.091229 0.267754 -0.959158 122 90 63 255 3
0.558883 -0.207365 0.046651 0.113786 0.260256 -0.958812 126 91 64 255 3
0.551752 -0.210471 0.044558 0.150696 0.260397 -0.953669 126 91 64 255 3
0.544595 -0.213673 0.042343 0.171360 0.261418 -0.949893 128 94 66 255 3
0.537484 -0.216776 0.040249 0.190123 0.261203 -0.946375 127 92 65 255 3
0.530203 -0.220362 0.037548 0.216866 0.250614 -0.943484 127 93 66 255 3
0.522898 -0.224043 0.034726 0.235892 0.248475 -0.939476 125 91 63 255 3
0.515605 -0.227722 0.031903 0.260049 0.242277 -0.934707 123 90 63 255 3
0.508360 -0.231303 0.029199 0.263041 0.255920 -0.930223 121 88 62 255 3
0.500916 -0.235462 0.025768 0.281556 0.250159 -0.926362 120 88 62 255 3
0.493382 -0.239909 0.021973 0.283873 0.265421 -0.921394 121 90 64 255 3
0.485864 -0.244354 0.018176 0.287294 0.273197 -0.918055 123 91 65 255 3
0.478327 -0.248893 0.014257 0.292263 0.281400 -0.914000 123 90 64 255 3
0.470771 -0.253526 0.010215 0.290551 0.291394 -0.911411 122 89 64 255 3
0.463198 -0.258253 0.006051 0.290122 0.300280 -0.908659 124 89 64 255 3
0.455642 -0.262978 0.001885 0.293737 0.297403 -0.908444 122 88 63 255 3
0.448102 -0.267700 -0.002282 0.294294 0.289765 -0.910729 122 88 63 255 3
0.440645 -0.272226 -0.006209 0.296417 0.295988 -0.908035 121 87 62 255 3
0.433204 -0.276750 -0.010136 0.299277 0.304605 -0.904239 119 86 62 255 3
0.425778 -0.281272 -0.014066 0.292258 0.306594 -0.905862 119 86 63 255 3
0.418271 -0.286081 -0.018360 0.311558 0.314002 -0.896847 118 86 63 255 3
0.410716 -0.291079 -0.022899 0.336811 0.311685 -0.888488 117 86 63 255 3
0.403212 -0.295978 -0.027318 0.314480 0.324253 -0.892167 117 86 63 255 3
0.395756 -0.300779 -0.031617 0.317065 0.329148 -0.889456 115 86 63 255 3
0.388349 -0.305480 -0.035796 0.370024 0.284027 -0.884540 114 84 62 255 3
0.380865 -0.310468 -0.040341 0.377821 0.309540 -0.872603 114 84 62 255 3
0.373242 -0.315934 -0.045494 0.375631 0.338052 -0.862915 111 84 62 255 3
0.366602 -0.318416 -0.046886 0.343549 0.396529 -0.851316 115 85 62 255 3
0.360277 -0.319937 -0.047064 0.319768 0.425151 -0.846755 122 87 64 255 3
0.349666 -0.334906 -0.064244 0.206210 0.277085 -0.938457 125 86 62 255 3
0.342129 -0.340359 -0.069405 0.039609 0.122790 -0.991642 120 82 60 255 3
0.335639 -0.342544 -0.070438 -0.088161 0.051595 -0.994769 117 81 59 255 3
0.329214 -0.344537 -0.071228 -0.163452 -0.013829 -0.986454 114 84 64 255 3
0.323241 -0.345090 -0.070195 -0.272093 -0.081620 -0.958803 111 80 61 255 3
0.317680 -0.344300 -0.067461 -0.313477 -0.078508 -0.946345 110 79 60 255 3
0.312111 -0.343512 -0.064727 -0.345460 -0.063181 -0.936304 109 78 59 255 3
0.306564 -0.342630 -0.061870 -0.394727 -0.100026 -0.913338 111 77 58 255 3
0.300950 -0.341940 -0.059256 -0.436519 -0.154239 -0.886375 111 75 56 255 3
0.295358 -0.341155 -0.056519 -0.466466 -0.191025 -0.863666 110 74 55 255 3
0.289702 -0.340563 -0.054025 -0.491836 -0.240840 -0.836716 110 72 54 255 3
0.284123 -0.339685 -0.051165 -0.534268 -0.292878 -0.792957 109 71 53 255 3
0.278733 -0.338139 -0.047453 -0.580347 -0.339840 -0.740071 108 70 51 255 3
0.273360 -0.336498 -0.043618 -0.627080 -0.384400 -0.677501 105 68 49 255 3
0.267975 -0.334860 -0.039782 -0.661650 -0.397153 -0.635994 105 68 49 255 3
0.262798 -0.332458 -0.034972 -0.710517 -0.438826 -0.550089 102 67 47 255 3
0.257661 -0.329868 -0.029916 -0.738971 -0.463086 -0.489360 98 65 46 255 3
0.252535 -0.327185 -0.024738 -0.777909 -0.501483 -0.378646 96 65 46 255 3
0.247741 -0.323263 -0.017974 -0.801631 -0.509905 -0.312066 91 64 46 255 3
0.243111 -0.318676 -0.010356 -0.815650 -0.512912 -0.267649 86 61 44 255 3
0.238721 -0.313139 -0.001518 -0.835298 -0.511075 -0.202681 85 62 45 255 3
0.234981 -0.305127 0.010491 -0.839753 -0.518936 -0.159752 79 64 46 255 3
0.779866 -0.168766 0.044162 -0.032150 -0.783165 -0.620983 114 95 72 255 3
0.771942 -0.173267 0.040396 -0.023351 -0.566239 -0.823910 114 95 72 255 3
0.764641 -0.176396 0.038316 -0.046137 -0.506410 -0.861058 125 97 72 255 3
0.758171 -0.177664 0.038523 -0.075232 -0.396129 -0.915107 132 102 77 255 3
0.752261 -0.177661 0.040296 -0.083786 -0.381865 -0.920412 133 104 80 255 3
0.746305 -0.177756 0.041949 -0.109679 -0.371007 -0.922130 136 106 81 255 3
0.740217 -0.178145 0.043241 -0.119078 -0.302928 -0.945545 139 107 81 255 3
0.734084 -0.178632 0.044412 -0.119908 -0.275239 -0.953869 139 106 80 255 3
0.727822 -0.179413 0.045222 -0.103760 -0.241084 -0.964942 139 106 80 255 3
0.721560 -0.180193 0.046032 -0.091891 -0.210306 -0.973307 139 107 81 255 3
0.715380 -0.180779 0.047083 -0.081165 -0.187882 -0.978832 138 108 81 255 3
0.708991 -0.181852 0.047532 -0.068519 -0.167770 -0.983442 135 105 79 255 3
0.702685 -0.182731 0.048222 -0.069214 -0.144582 -0.987069 136 106 79 255 3
0.696419 -0.183511 0.049032 -0.047378 -0.127381 -0.990722 136 105 77 255 3
0.690153 -0.184293 0.049842 -0.025108 -0.117195 -0.992792 136 103 76 255 3
0.683886 -0.185074 0.050653 0.003798 -0.111986 -0.993703 137 102 75 255 3
0.677334 -0.186537 0.050619 -0.000036 -0.070046 -0.997544 138 101 74 255 3
0.670664 -0.188292 0.050222 0.005793 -0.048793 -0.998792 139 102 75 255 3
0.663998 -0.190047 0.049825 0.014807 -0.068129 -0.997567 138 102 74 255 3
0.657414 -0.191606 0.049669 0.009248 -0.060399 -0.998131 138 102 74 255 3
0.650913 -0.192970 0.049755 0.003682 -0.036920 -0.999311 135 99 71 255 3
0.644531 -0.194043 0.050203 0.005257 -0.011265 -0.999923 131 98 71 255 3
0.638189 -0.195018 0.050771 0.003742 0.032491 -0.999465 126 96 70 255 3
0.631535 -0.196770 0.050373 0.013326 0.032055 -0.999397 124 94 69 255 3
0.624807 -0.198717 0.049733 0.012515 0.063914 -0.997877 125 94 69 255 3
0.618044 -0.200760 0.048972 0.036107 0.076867 -0.996387 123 93 67 255 3
0.611210 -0.202996 0.047968 0.028025 0.110052 -0.993531 121 93 67 255 3
0.604495 -0.204940 0.047327 0.023943 0.141804 -0.989605 119 92 66 255 3
0.598164 -0.205913 0.047895 0.007148 0.171114 -0.985225 120 92 65 255 3
0.591909 -0.206693 0.048704 0.026486 0.188333 -0.981748 120 90 65 255 3
0.585277 -0.208442 0.048304 0.047587 0.200107 -0.978618 120 88 63 255 3
0.578500 -0.210578 0.047420 0.072342 0.212536 -0.974472 121 87 62 255 3
0.571728 -0.212714 0.046535 0.101754 0.218962 -0.970413 122 86 61 255 3
0.564777 -0.215332 0.045044 0.128927 0.224092 -0.966002 122 86 61 255 3
0.557687 -0.218337 0.043069 0.155717 0.232615 -0.960022 127 92 64 255 3
0.550605 -0.221341 0.041093 0.177316 0.234250 -0.955869 127 94 66 255 3
0.543497 -0.224440 0.038995 0.197470 0.234956 -0.951736 126 94 66 255 3
0.536326 -0.227731 0.036654 0.222094 0.230750 -0.947327 125 94 66 255 3
0.529057 -0.231311 0.033949 0.240052 0.230082 -0.943100 126 95 67 255 3
0.521800 -0.234888 0.031243 0.259068 0.229608 -0.938171 125 94 66 255 3
0.514520 -0.238561 0.028415 0.273760 0.227538 -0.934496 124 93 66 255 3
0.507181 -0.242425 0.025343 0.290153 0.224917 -0.930174 123 92 66 255 3
0.499680 -0.246770 0.021664 0.294629 0.233580 -0.926625 123 93 66 255 3
0.492194 -0.251112 0.017983 0.299325 0.232680 -0.925345 122 92 66 255 3
0.484723 -0.255452 0.014302 0.308831 0.245701 -0.918833 121 91 64 255 3
0.477232 -0.259887 0.010498 0.308179 0.251387 -0.917513 123 91 65 255 3
0.469723 -0.264415 0.006571 0.327443 0.231720 -0.916017 123 90 64 255 3
0.462230 -0.268941 0.002642 0.330691 0.231848 -0.914817 126 90 64 255 3
0.454718 -0.273561 -0.001409 0.332752 0.233271 -0.913707 122 89 63 255 3
0.447257 -0.278082 -0.005340 0.337225 0.235351 -0.911531 120 86 61 255 3
0.439811 -0.282600 -0.009272 0.344022 0.239518 -0.907899 120 86 61 255 3
0.432381 -0.287117 -0.013206 0.351170 0.246807 -0.903198 118 85 61 255 3
0.424901 -0.291823 -0.017384 0.371852 0.220280 -0.901777 117 85 61 255 3
0.417339 -0.296815 -0.021928 0.389198 0.209595 -0.896992 114 84 61 255 3
0.409829 -0.301709 -0.026352 0.390533 0.229074 -0.891633 113 83 61 255 3
0.402142 -0.307176 -0.031507 0.376682 0.235735 -0.895846 113 84 61 255 3
0.394604 -0.312256 -0.036177 0.385593 0.263806 -0.884152 111 82 61 255 3
0.386988 -0.317621 -0.041213 0.396007 0.284637 -0.873018 111 82 61 255 3
0.379078 -0.323944 -0.047466 0.451526 0.285115 -0.845478 111 81 61 255 3
0.370909 -0.331127 -0.054815 0.438752 0.256496 -0.861224 111 80 59 255 3
0.364602 -0.332644 -0.054996 0.404684 0.253163 -0.878714 114 79 58 255 3
0.355519 -0.342794 -0.066117 0.273598 0.189149 -0.943062 123 83 61 255 3
0.348316 -0.347184 -0.069947 0.144485 0.044112 -0.988523 122 82 61 255 3
0.341830 -0.349367 -0.070981 -0.003190 -0.048368 -0.998825 117 80 59 255 3
0.335439 -0.351261 -0.071652 -0.093879 -0.104341 -0.990101 117 80 59 255 3
0.329444 -0.351909 -0.070741 -0.196563 -0.154468 -0.968247 115 81 61 255 3
0.323745 -0.351600 -0.068614 -0.278388 -0.158333 -0.947328 112 79 60 255 3
0.318070 -0.351196 -0.066365 -0.338798 -0.157705 -0.927548 110 77 58 255 3
0.312507 -0.350410 -0.063628 -0.394371 -0.157512 -0.905351 107 74 57 255 3
0.306906 -0.349721 -0.061012 -0.437949 -0.194599 -0.877685 108 73 56 255 3
0.301328 -0.348938 -0.058274 -0.466513 -0.224509 -0.855547 107 71 54 255 3
0.295742 -0.348155 -0.055536 -0.496806 -0.259152 -0.828266 106 69 52 255 3
0.290177 -0.347278 -0.052675 -0.537111 -0.301908 -0.787632 108 70 51 255 3
0.284802 -0.345734 -0.048960 -0.580177 -0.346215 -0.737244 109 69 51 255 3
0.279444 -0.344096 -0.045123 -0.623679 -0.391602 -0.676515 107 68 50 255 3
0.274074 -0.342460 -0.041285 -0.654547 -0.405341 -0.638175 103 67 48 255 3
0.268887 -0.340157 -0.036593 -0.692306 -0.441929 -0.570448 101 66 47 255 3
0.263740 -0.337666 -0.031655 -0.726881 -0.477056 -0.494026 98 65 46 255 3
0.258605 -0.335081 -0.026595 -0.756172 -0.518097 -0.399724 94 64 46 255 3
0.253779 -0.331355 -0.020070 -0.787866 -0.526531 -0.319424 91 63 46 255 3
0.249120 -0.326965 -0.012690 -0.801015 -0.535688 -0.267233 86 61 44 255 3
0.244623 -0.321912 -0.004455 -0.818558 -0.532171 -0.216233 85 61 44 255 3
0.240813 -0.314292 0.007076 -0.831122 -0.532775 -0.159333 81 64 47 255 3
0.798258 -0.174641 0.041693 0.032639 -0.901606 -0.431325 112 89 68 255 3
0.791337 -0.176888 0.040695 0.027703 -0.873129 -0.486701 123 93 70 255 3
0.784775 -0.178352 0.040661 0.030541 -0.852756 -0.521416 123 93 70 255 3
0.778567 -0.179034 0.041591 0.001213 -0.788137 -0.615498 128 96 73 255 3
0.771920 -0.180693 0.041316 0.006695 -0.785206 -0.619199 128 96 73 255 3
0.765059 -0.182840 0.040437 0.002903 -0.602741 -0.797932 133 99 74 255 3
0.758592 -0.184107 0.040644 -0.038730 -0.492766 -0.869299 130 100 75 255 3
0.752600 -0.184301 0.042177 -0.064612 -0.468088 -0.881317 130 100 75 255 3
0.746691 -0.184299 0.043951 -0.089616 -0.407958 -0.908592 130 100 75 255 3
0.740564 -0.184786 0.045123 -0.069460 -0.438962 -0.895817 132 102 77 255 3
0.734435 -0.185273 0.046294 -0.094696 -0.368202 -0.924911 136 103 78 255 3
0.728177 -0.186053 0.047104 -0.063543 -0.313209 -0.947556 137 105 78 255 3
0.721877 -0.186931 0.047794 -0.040827 -0.385589 -0.921767 137 105 78 255 3
0.715617 -0.187711 0.048604 -0.050157 -0.348836 -0.935841 136 103 77 255 3
0.709316 -0.188589 0.049293 -0.038153 -0.315310 -0.948222 136 103 77 255 3
0.703014 -0.189467 0.049983 -0.025392 -0.288550 -0.957128 136 103 77 255 3
0.696752 -0.190248 0.050793 -0.008741 -0.266867 -0.963694 136 103 76 255 3
0.690449 -0.191126 0.051482 0.029159 -0.271637 -0.961958 136 103 75 255 3
0.683657 -0.193172 0.050722 0.046216 -0.252557 -0.966478 136 102 74 255 3
0.676869 -0.195216 0.049962 0.068663 -0.238717 -0.968659 137 102 74 255 3
0.670288 -0.196774 0.049805 0.070468 -0.228971 -0.970879 137 102 74 255 3
0.663830 -0.198040 0.050011 0.060986 -0.207450 -0.976343 135 101 74 255 3
0.657332 -0.199404 0.050095 0.055547 -0.178703 -0.982334 135 101 74 255 3
0.650837 -0.200766 0.050180 0.054634 -0.134312 -0.989432 134 98 71 255 3
0.644383 -0.202032 0.050385 0.059146 -0.102486 -0.992975 132 97 70 255 3
0.637969 -0.203200 0.050711 0.063445 -0.073332 -0.995287 129 95 69 255 3
0.631283 -0.205047 0.050190 0.081193 -0.050474 -0.995420 129 95 69 255 3
0.624601 -0.206894 0.049669 0.085605 -0.058877 -0.994588 126 94 68 255 3
0.617922 -0.208740 0.049148 0.080461 -0.037170 -0.996064 124 93 67 255 3
0.611171 -0.210779 0.048384 0.078624 -0.038274 -0.996169 120 92 66 255 3
0.604539 -0.212527 0.047983 0.077808 -0.014507 -0.996863 120 92 66 255 3
0.598138 -0.213693 0.048307 0.080757 -0.001168 -0.996733 119 91 65 255 3
0.591549 -0.215343 0.048027 0.095485 0.024859 -0.995120 120 90 64 255 3
0.584701 -0.217670 0.046898 0.124773 0.042408 -0.991279 120 90 64 255 3
0.577933 -0.219803 0.046012 0.151446 0.068396 -0.986096 122 89 64 255 3
0.571096 -0.222128 0.044882 0.166098 0.118399 -0.978976 123 88 63 255 3
0.564006 -0.225130 0.042904 0.183191 0.142222 -0.972735 126 89 63 255 3
0.556926 -0.228130 0.040925 0.204397 0.148688 -0.967530 127 90 64 255 3
0.549855 -0.231128 0.038945 0.216874 0.170089 -0.961268 126 91 65 255 3
0.542756 -0.234222 0.036843 0.233854 0.172078 -0.956923 125 91 65 255 3
0.535487 -0.237797 0.034134 0.247481 0.184088 -0.951244 124 92 66 255 3
0.528229 -0.241370 0.031424 0.264460 0.185577 -0.946373 124 93 66 255 3
0.520983 -0.244942 0.028713 0.278963 0.175223 -0.944180 123 92 65 255 3
0.513677 -0.248704 0.025759 0.297465 0.173446 -0.938845 122 91 65 255 3
0.506173 -0.253044 0.022075 0.321642 0.174413 -0.930659 123 92 66 255 3
0.498683 -0.257381 0.018390 0.337517 0.169664 -0.925903 123 92 67 255 3
0.491209 -0.261716 0.014704 0.359541 0.153310 -0.920449 121 90 65 255 3
0.483715 -0.266144 0.010895 0.368910 0.146999 -0.917767 120 90 64 255 3
0.476236 -0.270571 0.007085 0.376338 0.141533 -0.915608 122 90 64 255 3
0.468772 -0.274995 0.003273 0.382226 0.136810 -0.913885 120 88 62 255 3
0.461324 -0.279416 -0.000540 0.387632 0.132515 -0.912239 121 88 62 255 3
0.453858 -0.283932 -0.004476 0.394391 0.113498 -0.911907 121 88 62 255 3
0.446407 -0.288445 -0.008413 0.402677 0.112070 -0.908456 119 86 61 255 3
0.439005 -0.292860 -0.012230 0.414087 0.113156 -0.903176 117 84 60 255 3
0.431553 -0.297464 -0.016292 0.427997 0.119259 -0.895877 114 83 59 255 3
0.423985 -0.302450 -0.020841 0.441059 0.131063 -0.887857 114 83 59 255 3
0.416436 -0.307433 -0.025392 0.450492 0.145663 -0.880818 112 82 59 255 3
0.408807 -0.312702 -0.030309 0.442337 0.171940 -0.880213 110 81 59 255 3
0.401100 -0.318256 -0.035592 0.447582 0.202923 -0.870915 110 81 59 255 3
0.393510 -0.323518 -0.040513 0.461951 0.228335 -0.857009 110 81 59 255 3
0.385717 -0.329449 -0.046286 0.488783 0.219058 -0.844455 110 81 59 255 3
0.377820 -0.335760 -0.052548 0.506461 0.168019 -0.845735 109 79 59 255 3
0.369414 -0.343697 -0.060881 0.459454 0.131813 -0.878366 109 79 59 255 3
0.361786 -0.349329 -0.066296 0.362562 -0.012990 -0.931869 114 78 57 255 3
0.354549 -0.353809 -0.070252 0.211304 -0.081317 -0.974032 115 76 56 255 3
0.348158 -0.355702 -0.070924 0.069428 -0.174682 -0.982174 114 76 56 255 3
0.341801 -0.357499 -0.071474 -0.037015 -0.203684 -0.978337 114 76 56 255 3
0.335782 -0.358242 -0.070686 -0.126693 -0.225671 -0.965930 113 78 58 255 3
0.330032 -0.358125 -0.068801 -0.209451 -0.243520 -0.947010 111 77 58 255 3
0.324366 -0.357722 -0.066551 -0.278730 -0.230208 -0.932370 109 75 57 255 3
0.318666 -0.357415 -0.064421 -0.352226 -0.244830 -0.903325 108 73 57 255 3
0.313018 -0.356919 -0.062048 -0.405428 -0.250135 -0.879239 105 71 55 255 3
0.307394 -0.356327 -0.059552 -0.450452 -0.274074 -0.849692 105 69 53 255 3
0.301820 -0.355546 -0.056812 -0.490143 -0.293998 -0.820564 104 68 52 255 3
0.296268 -0.354670 -0.053950 -0.532439 -0.327047 -0.780736 104 66 50 255 3
0.290907 -0.353128 -0.050233 -0.575709 -0.365552 -0.731389 107 68 51 255 3
0.285536 -0.351588 -0.046515 -0.620315 -0.405115 -0.671632 107 69 50 255 3
0.280153 -0.350049 -0.042797 -0.648816 -0.421426 -0.633592 107 69 50 255 3
0.274927 -0.347940 -0.038345 -0.686120 -0.451687 -0.570279 102 67 48 255 3
0.269854 -0.345262 -0.033161 -0.721354 -0.487957 -0.491474 98 65 47 255 3
0.264737 -0.342681 -0.028097 -0.765548 -0.513706 -0.387352 94 64 46 255 3
0.259850 -0.339246 -0.021933 -0.772587 -0.550952 -0.315534 90 63 45 255 3
0.255132 -0.335147 -0.014913 -0.787989 -0.553423 -0.269809 85 61 44 255 3
0.250688 -0.330006 -0.006549 -0.803115 -0.552409 -0.223272 85 61 45 255 3
0.246670 -0.323251 0.003893 -0.817368 -0.550029 -0.171401 85 63 47 255 3
0.878656 -0.019441 0.241496 -0.228963 -0.683706 -0.692908 99 82 63 255 3
0.798569 -0.181284 0.043575 0.032639 -0.901606 -0.431325 123 90 68 255 3
0.791785 -0.183235 0.042937 0.065256 -0.876882 -0.476255 120 90 68 255 3
0.785359 -0.184405 0.043264 0.047542 -0.871295 -0.488451 120 91 68 255 3
0.779021 -0.185379 0.043832 0.021388 -0.860417 -0.509142 120 91 68 255 3
0.772858 -0.185964 0.044883 0.046546 -0.851318 -0.522581 126 97 72 255 3
0.766346 -0.187328 0.044969 0.047866 -0.818757 -0.572141 126 98 73 255 3
0.759921 -0.188498 0.045295 0.038285 -0.767959 -0.639354 123 97 73 255 3
0.753843 -0.188887 0.046588 0.025157 -0.752772 -0.657801 121 95 71 255 3
0.747590 -0.189667 0.047398 -0.005975 -0.719499 -0.694468 120 97 74 255 3
0.741379 -0.190349 0.048328 0.007791 -0.703996 -0.710161 122 100 78 255 3
0.735082 -0.191227 0.049017 0.010967 -0.656423 -0.754313 127 102 77 255 3
0.728742 -0.192202 0.049586 0.017629 -0.623856 -0.781341 129 102 77 255 3
0.722486 -0.192982 0.050396 0.021877 -0.577446 -0.816136 130 101 77 255 3
0.716021 -0.194248 0.050602 0.035181 -0.558117 -0.829016 132 102 77 255 3
0.709639 -0.195320 0.051049 0.042805 -0.512175 -0.857814 130 101 76 255 3
0.703300 -0.196295 0.051618 0.051780 -0.467141 -0.882665 132 103 77 255 3
0.697002 -0.197173 0.052307 0.060422 -0.429720 -0.900938 133 103 76 255 3
0.690334 -0.198925 0.051908 0.076733 -0.400629 -0.913022 133 104 77 255 3
0.683793 -0.200385 0.051871 0.082985 -0.373227 -0.924021 133 103 76 255 3
0.677051 -0.202330 0.051230 0.090670 -0.350095 -0.932316 133 101 74 255 3
0.670353 -0.204177 0.050709 0.094510 -0.320096 -0.942659 133 100 74 255 3
0.663860 -0.205539 0.050792 0.090434 -0.327116 -0.940647 134 100 73 255 3
0.657568 -0.206415 0.051481 0.106581 -0.315902 -0.942786 134 99 72 255 3
0.651315 -0.207195 0.052291 0.098752 -0.265695 -0.958986 132 96 69 255 3
0.644745 -0.208750 0.052132 0.109576 -0.250948 -0.961779 128 93 67 255 3
0.637982 -0.210789 0.051368 0.111500 -0.212165 -0.970852 125 92 66 255 3
0.631263 -0.212731 0.050724 0.140388 -0.196027 -0.970497 123 92 66 255 3
0.624548 -0.214672 0.050080 0.135053 -0.171106 -0.975953 119 90 65 255 3
0.617837 -0.216612 0.049436 0.126342 -0.144244 -0.981444 118 90 64 255 3
0.611245 -0.218262 0.049154 0.108821 -0.098970 -0.989122 119 91 65 255 3
0.604619 -0.220007 0.048752 0.132746 -0.103216 -0.985761 119 91 65 255 3
0.597919 -0.221946 0.048106 0.125309 -0.058756 -0.990376 119 92 65 255 3
0.591111 -0.224174 0.047097 0.145376 -0.024990 -0.989061 119 90 63 255 3
0.584308 -0.226400 0.046087 0.171153 0.009265 -0.985201 120 90 64 255 3
0.577474 -0.228723 0.044955 0.194593 0.031502 -0.980378 119 88 63 255 3
0.570422 -0.231624 0.043095 0.213490 0.046172 -0.975854 120 88 63 255 3
0.563380 -0.234524 0.041234 0.233547 0.058927 -0.970558 123 88 64 255 3
0.556309 -0.237519 0.039251 0.253426 0.069346 -0.964866 123 89 64 255 3
0.549283 -0.240416 0.037389 0.270044 0.082770 -0.959284 123 89 64 255 3
0.542012 -0.243987 0.034677 0.284086 0.088647 -0.954692 123 89 64 255 3
0.534752 -0.247556 0.031963 0.307445 0.081445 -0.948074 122 89 65 255 3
0.527540 -0.251027 0.029370 0.322604 0.093661 -0.941889 120 88 64 255 3
0.520339 -0.254496 0.026776 0.334911 0.092435 -0.937705 119 88 64 255 3
0.512972 -0.258445 0.023574 0.350655 0.092543 -0.931921 116 86 63 255 3
0.505548 -0.262584 0.020127 0.368006 0.071834 -0.927044 117 87 63 255 3
0.498067 -0.266914 0.016437 0.387980 0.061966 -0.919582 118 88 65 255 3
0.490637 -0.271145 0.012866 0.400113 0.053637 -0.914895 117 87 64 255 3
0.483255 -0.275278 0.009416 0.410559 0.045396 -0.910703 116 86 63 255 3
0.475819 -0.279601 0.005721 0.418871 0.037248 -0.907281 116 85 61 255 3
0.468364 -0.284017 0.001904 0.425804 0.029159 -0.904345 117 85 61 255 3
0.460957 -0.288336 -0.001793 0.435800 0.021323 -0.899791 118 86 61 255 3
0.453600 -0.292556 -0.005370 0.441906 -0.000944 -0.897061 116 84 60 255 3
0.446190 -0.296965 -0.009192 0.460639 -0.011325 -0.887516 115 83 59 255 3
0.438795 -0.301373 -0.013014 0.476908 -0.008608 -0.878911 114 82 58 255 3
0.431250 -0.306257 -0.017447 0.496013 0.000117 -0.868315 112 81 58 255 3
0.423723 -0.311139 -0.021881 0.513482 0.013864 -0.857988 112 80 58 255 3
0.416181 -0.316114 -0.026438 0.523095 0.056086 -0.850427 111 81 58 255 3
0.408429 -0.321758 -0.031849 0.535801 0.078320 -0.840704 111 81 59 255 3
0.400666 -0.327493 -0.037383 0.531594 0.077807 -0.843418 110 81 59 255 3
0.392572 -0.334279 -0.044258 0.531039 0.104417 -0.840890 108 79 58 255 3
0.384440 -0.341253 -0.051380 0.560523 0.078459 -0.824414 108 78 58 255 3
0.376430 -0.347935 -0.058138 0.540593 0.057303 -0.839330 107 78 58 255 3
0.368697 -0.353848 -0.063924 0.469687 -0.124837 -0.873962 109 79 58 255 3
0.361453 -0.358323 -0.067885 0.336138 -0.184441 -0.923576 110 78 56 255 3
0.354937 -0.360597 -0.069045 0.219158 -0.256118 -0.941474 110 74 53 255 3
0.348489 -0.362678 -0.069962 0.067485 -0.321827 -0.944390 111 74 53 255 3
0.342503 -0.363326 -0.069052 -0.022590 -0.332284 -0.942909 110 74 54 255 3
0.336637 -0.363592 -0.067654 -0.121446 -0.344518 -0.930891 107 72 54 255 3
0.330769 -0.363858 -0.066256 -0.196988 -0.353863 -0.914318 107 72 54 255 3
0.324868 -0.364221 -0.064979 -0.281542 -0.341786 -0.896614 106 71 55 255 3
0.319231 -0.363725 -0.062604 -0.348730 -0.344292 -0.871694 104 69 55 255 3
0.313617 -0.363134 -0.060107 -0.407757 -0.344217 -0.845724 102 68 53 255 3
0.307967 -0.362640 -0.057732 -0.456780 -0.355938 -0.815267 102 66 52 255 3
0.302340 -0.362052 -0.055234 -0.511347 -0.373606 -0.773914 103 66 50 255 3
0.296994 -0.360512 -0.051515 -0.562486 -0.401044 -0.723030 103 66 49 255 3
0.291637 -0.358974 -0.047795 -0.608567 -0.434559 -0.663932 104 66 48 255 3
0.286269 -0.357437 -0.044074 -0.640160 -0.442924 -0.627705 105 68 50 255 3
0.281087 -0.355236 -0.039497 -0.679906 -0.465310 -0.566758 103 67 49 255 3
0.275947 -0.352847 -0.034675 -0.715668 -0.498922 -0.488769 99 65 47 255 3
0.270848 -0.350270 -0.029608 -0.745876 -0.526956 -0.407415 94 63 46 255 3
0.265981 -0.346839 -0.023439 -0.762816 -0.566261 -0.312188 90 62 45 255 3
0.261258 -0.342842 -0.016536 -0.784031 -0.565651 -0.255606 85 61 44 255 3
0.256676 -0.338277 -0.008899 -0.791244 -0.572983 -0.213596 85 62 46 255 3
0.252769 -0.331247 0.001919 -0.802367 -0.571785 -0.171085 83 63 47 255 3
0.805933 -0.185385 0.046816 0.047961 -0.925750 -0.375081 109 85 67 255 3
0.799683 -0.186165 0.047626 0.052028 -0.922702 -0.381986 115 87 66 255 3
0.793165 -0.187529 0.047711 0.049461 -0.915711 -0.398782 109 83 61 255 3
0.786781 -0.188602 0.048158 0.063453 -0.894132 -0.443284 115 88 63 255 3
0.780574 -0.189284 0.049089 0.048969 -0.893703 -0.445980 120 92 65 255 3
0.774453 -0.189772 0.050262 0.061726 -0.888106 -0.455475 120 92 65 255 3
0.768374 -0.190162 0.051555 0.088534 -0.870223 -0.484638 116 94 70 255 3
0.762032 -0.191138 0.052124 0.092023 -0.850586 -0.517722 115 91 68 255 3
0.755560 -0.192405 0.052330 0.072022 -0.821104 -0.566216 116 91 68 255 3
0.749304 -0.193185 0.053140 0.096912 -0.817735 -0.567378 117 94 72 255 3
0.742877 -0.194355 0.053467 0.079651 -0.782539 -0.617486 117 95 73 255 3
0.736408 -0.195621 0.053673 0.085398 -0.738185 -0.669172 118 94 71 255 3
0.730109 -0.196499 0.054362 0.091809 -0.693662 -0.714426 118 94 71 255 3
0.723600 -0.197863 0.054447 0.088278 -0.665603 -0.741066 125 97 74 255 3
0.717092 -0.199226 0.054531 0.095286 -0.664035 -0.741605 127 99 75 255 3
0.710461 -0.200880 0.054252 0.113918 -0.658650 -0.743776 125 97 75 255 3
0.703958 -0.202243 0.054336 0.121139 -0.640033 -0.758738 124 97 74 255 3
0.697415 -0.203702 0.054299 0.152884 -0.668299 -0.728013 123 96 72 255 3
0.690833 -0.205258 0.054141 0.148619 -0.663967 -0.732844 124 97 73 255 3
0.684253 -0.206814 0.053982 0.153786 -0.632721 -0.758956 127 99 74 255 3
0.677798 -0.208079 0.054187 0.174363 -0.596224 -0.783654 127 98 74 255 3
0.671344 -0.209343 0.054391 0.189036 -0.572079 -0.798117 129 98 74 255 3
0.664892 -0.210607 0.054595 0.195448 -0.515219 -0.834476 128 97 72 255 3
0.658320 -0.212162 0.054436 0.170862 -0.453424 -0.874764 124 94 69 255 3
0.651553 -0.214199 0.053670 0.175416 -0.386982 -0.905248 121 91 67 255 3
0.644791 -0.216237 0.052905 0.215592 -0.389013 -0.895650 120 90 65 255 3
0.638033 -0.218273 0.052138 0.193734 -0.337820 -0.921057 120 90 65 255 3
0.631319 -0.220212 0.051493 0.203709 -0.329717 -0.921840 121 89 65 255 3
0.624648 -0.222054 0.050968 0.179000 -0.305203 -0.935313 119 88 64 255 3
0.617981 -0.223895 0.050443 0.166377 -0.276572 -0.946481 118 88 64 255 3
0.611317 -0.225736 0.049918 0.171270 -0.272428 -0.946810 117 88 64 255 3
0.604620 -0.227672 0.049271 0.188878 -0.239896 -0.952247 117 89 64 255 3
0.597774 -0.229994 0.048138 0.206809 -0.192651 -0.959227 118 90 64 255 3
0.590935 -0.232315 0.047005 0.228264 -0.150036 -0.961969 117 89 64 255 3
0.584063 -0.234732 0.045750 0.238447 -0.125749 -0.962980 117 88 63 255 3
0.577049 -0.237533 0.044008 0.276278 -0.112367 -0.954486 116 86 62 255 3
0.570006 -0.240430 0.042145 0.293315 -0.093686 -0.951414 118 86 62 255 3
0.562971 -0.243325 0.040281 0.311332 -0.076473 -0.947219 118 85 61 255 3
0.555945 -0.246219 0.038416 0.327976 -0.062113 -0.942642 120 86 62 255 3
0.548744 -0.249593 0.035943 0.341547 -0.050648 -0.938499 119 86 63 255 3
0.541518 -0.253061 0.033347 0.354526 -0.040090 -0.934186 118 85 61 255 3
0.534303 -0.256528 0.030750 0.356168 -0.027174 -0.934027 117 85 62 255 3
0.527099 -0.259993 0.028153 0.369589 -0.023103 -0.928908 116 84 60 255 3
0.519835 -0.263649 0.025311 0.383048 -0.023506 -0.923429 115 84 60 255 3
0.512441 -0.267687 0.021982 0.404329 -0.049947 -0.913249 114 84 61 255 3
0.505095 -0.271628 0.018774 0.437195 -0.067685 -0.896816 113 84 61 255 3
0.497763 -0.275566 0.015564 0.444189 -0.073852 -0.892884 113 84 61 255 3
0.490340 -0.279790 0.011988 0.463144 -0.076129 -0.883008 111 82 59 255 3
0.482966 -0.283916 0.008533 0.471355 -0.082091 -0.878115 110 82 59 255 3
0.475605 -0.288040 0.005076 0.477164 -0.087446 -0.874453 111 82 58 255 3
0.468225 -0.292258 0.001496 0.458847 -0.052602 -0.886957 111 81 56 255 3
0.460859 -0.296473 -0.002085 0.464095 -0.059942 -0.883755 112 82 58 255 3
0.453508 -0.300687 -0.005667 0.477056 -0.080415 -0.875186 111 81 57 255 3
0.446171 -0.304898 -0.009250 0.494146 -0.083369 -0.865372 111 80 57 255 3
0.438782 -0.309298 -0.013079 0.513713 -0.078443 -0.854369 112 80 56 255 3
0.431210 -0.314271 -0.017639 0.534346 -0.061743 -0.843008 113 80 57 255 3
0.423622 -0.319336 -0.022323 0.551745 -0.032807 -0.833367 113 80 58 255 3
0.416020 -0.324495 -0.027130 0.549280 -0.010139 -0.835577 113 81 59 255 3
0.408242 -0.330224 -0.032670 0.563805 0.001344 -0.825907 111 80 58 255 3
0.400486 -0.335951 -0.038212 0.576868 0.016660 -0.816667 111 80 59 255 3
0.392206 -0.343299 -0.045828 0.612228 -0.023427 -0.790334 111 80 59 255 3
0.384240 -0.349783 -0.052349 0.616657 -0.085848 -0.782537 108 79 58 255 3
0.376458 -0.355785 -0.058263 0.565627 -0.160148 -0.808962 106 76 56 255 3
0.368950 -0.361020 -0.063203 0.474116 -0.212461 -0.854444 106 75 55 255 3
0.361929 -0.364820 -0.066316 0.340700 -0.349710 -0.872712 106 74 53 255 3
0.355416 -0.367090 -0.067479 0.217956 -0.404241 -0.888304 105 70 50 255 3
0.349340 -0.368025 -0.066934 0.108719 -0.409472 -0.905822 107 69 50 255 3
0.343234 -0.369054 -0.066511 -0.036107 -0.447002 -0.893804 104 68 50 255 3
0.337371 -0.369321 -0.065112 -0.112109 -0.422653 -0.899331 102 68 52 255 3
0.331475 -0.369683 -0.063835 -0.187176 -0.433296 -0.881600 102 67 53 255 3
0.325666 -0.369760 -0.062192 -0.260040 -0.426478 -0.866312 102 68 53 255 3
0.319824 -0.369933 -0.060670 -0.335037 -0.415097 -0.845840 101 67 53 255 3
0.314126 -0.369631 -0.058538 -0.396460 -0.417347 -0.817704 101 66 52 255 3
0.308510 -0.369043 -0.056038 -0.462794 -0.428893 -0.775805 99 63 49 255 3
0.303120 -0.367696 -0.052561 -0.524890 -0.446614 -0.724587 99 62 47 255 3
0.297748 -0.366255 -0.048961 -0.581052 -0.458383 -0.672505 99 63 46 255 3
0.292366 -0.364816 -0.045360 -0.624911 -0.477501 -0.617639 100 64 46 255 3
0.287200 -0.362618 -0.040780 -0.666265 -0.493458 -0.559097 100 65 48 255 3
0.282134 -0.360042 -0.035710 -0.705147 -0.519010 -0.483110 99 65 49 255 3
0.276995 -0.357658 -0.030883 -0.740147 -0.541646 -0.398499 94 63 46 255 3
0.272065 -0.354517 -0.025077 -0.755334 -0.578356 -0.308179 89 62 45 255 3
0.267446 -0.350240 -0.017802 -0.776199 -0.576748 -0.254708 87 61 44 255 3
0.262887 -0.345682 -0.010158 -0.779979 -0.587228 -0.216324 86 62 45 255 3
0.258873 -0.339136 0.000056 -0.790618 -0.586182 -0.176954 83 63 45 255 3
0.808977 -0.186077 0.056063 0.029648 -0.946276 -0.321997 96 81 66 255 3
0.802092 -0.188222 0.055182 0.064435 -0.939382 -0.336764 104 81 62 255 3
0.796101 -0.188419 0.056718 0.064435 -0.939382 -0.336764 99 75 55 255 3
0.789399 -0.190173 0.056320 0.075187 -0.937185 -0.340633 106 81 58 255 3
0.783757 -0.189593 0.058824 0.058216 -0.942817 -0.328186 106 81 58 255 3
0.780255 -0.184249 0.067255 0.035600 -0.962593 -0.268603 100 78 56 255 3
0.773324 -0.186491 0.066253 0.067682 -0.960545 -0.269763 100 78 56 255 3
0.765879 -0.189898 0.063798 0.102901 -0.968870 -0.225172 114 89 65 255 3
0.758789 -0.192527 0.062311 0.130239 -0.946873 -0.294056 113 88 64 255 3
0.752223 -0.193989 0.062275 0.144312 -0.935178 -0.323445 112 87 63 255 3
0.745530 -0.195742 0.061876 0.152020 -0.925967 -0.345652 110 86 64 255 3
0.738755 -0.197689 0.061235 0.145606 -0.899239 -0.412515 107 86 64 255 3
0.732197 -0.199150 0.061198 0.153195 -0.879691 -0.450194 106 85 64 255 3
0.725640 -0.200610 0.061162 0.152798 -0.870614 -0.467637 108 87 66 255 3
0.719127 -0.201974 0.061246 0.159174 -0.844017 -0.512152 110 86 66 255 3
0.712408 -0.203821 0.060724 0.161885 -0.815386 -0.555822 114 86 66 255 3
0.705693 -0.205668 0.060202 0.186607 -0.780596 -0.596530 119 88 67 255 3
0.698981 -0.207515 0.059680 0.184998 -0.750757 -0.634145 119 88 67 255 3
0.692397 -0.209070 0.059521 0.187167 -0.718373 -0.670006 119 88 66 255 3
0.685856 -0.210529 0.059483 0.218171 -0.695723 -0.684376 117 90 68 255 3
0.679316 -0.211986 0.059445 0.232533 -0.651006 -0.722578 117 91 70 255 3
0.672780 -0.213444 0.059407 0.231058 -0.612983 -0.755556 119 94 72 255 3
0.666124 -0.215191 0.059004 0.242548 -0.558284 -0.793404 120 95 72 255 3
0.659272 -0.217421 0.057995 0.240502 -0.525012 -0.816407 120 95 72 255 3
0.652386 -0.219747 0.056864 0.232724 -0.495580 -0.836803 115 91 67 255 3
0.645427 -0.222265 0.055490 0.236183 -0.477659 -0.846203 115 91 67 255 3
0.638475 -0.224782 0.054115 0.252112 -0.459525 -0.851631 119 89 65 255 3
0.631764 -0.226719 0.053468 0.267224 -0.444187 -0.855155 122 90 67 255 3
0.625096 -0.228559 0.052941 0.245811 -0.425180 -0.871091 119 89 66 255 3
0.618394 -0.230495 0.052294 0.223341 -0.372160 -0.900897 116 87 63 255 3
0.611618 -0.232622 0.051402 0.239007 -0.372584 -0.896692 116 87 63 255 3
0.604772 -0.234942 0.050268 0.263690 -0.399127 -0.878160 116 86 62 255 3
0.597931 -0.237261 0.049133 0.275347 -0.345803 -0.896997 115 86 61 255 3
0.591058 -0.239675 0.047875 0.306553 -0.326087 -0.894255 116 85 61 255 3
0.584079 -0.242377 0.046253 0.318401 -0.292348 -0.901750 116 85 61 255 3
0.577033 -0.245271 0.044387 0.360886 -0.279939 -0.889604 115 83 59 255 3
0.569995 -0.248163 0.042521 0.377011 -0.254675 -0.890507 113 81 59 255 3
0.563003 -0.250958 0.040775 0.375818 -0.232880 -0.896955 114 82 59 255 3
0.555945 -0.253944 0.038785 0.390581 -0.220688 -0.893724 115 82 59 255 3
0.548714 -0.257409 0.036186 0.402292 -0.201546 -0.893051 114 82 60 255 3
0.541493 -0.260872 0.033586 0.412596 -0.177947 -0.893364 112 81 59 255 3
0.534284 -0.264333 0.030986 0.431757 -0.188767 -0.882017 111 80 58 255 3
0.527122 -0.267697 0.028506 0.450108 -0.175927 -0.875472 112 81 58 255 3
0.519827 -0.271444 0.025538 0.450101 -0.152765 -0.879814 111 80 57 255 3
0.512580 -0.275092 0.022691 0.448526 -0.149987 -0.881095 109 80 57 255 3
0.505204 -0.279122 0.019356 0.460565 -0.154133 -0.874141 108 79 57 255 3
0.497877 -0.283054 0.016141 0.471389 -0.158517 -0.867562 108 81 59 255 3
0.490528 -0.287080 0.012804 0.486588 -0.142306 -0.861964 106 79 56 255 3
0.483158 -0.291200 0.009344 0.494462 -0.146912 -0.856694 106 79 57 255 3
0.475768 -0.295414 0.005760 0.499921 -0.151236 -0.852764 106 78 55 255 3
0.468392 -0.299625 0.002175 0.498139 -0.140775 -0.855593 106 77 54 255 3
0.461065 -0.303738 -0.001289 0.502642 -0.146388 -0.852010 108 79 55 255 3
