ply
format ascii 1.0
comment Created by labeled_geometry.py
element vertex 642
property float x
property float y
property float z
property float nx
property float ny
property float nz
property uchar red
property uchar green
property uchar blue
property uchar alpha
property uchar label
end_header
0.075449 -0.013751 -0.047024 -0.112841 -0.278289 -0.953846 130 107 82 255 4
0.079862 -0.013250 -0.047691 -0.119960 -0.274314 -0.954129 131 106 80 255 4
0.084273 -0.012750 -0.048359 -0.123102 -0.270621 -0.954783 130 105 79 255 4
0.088682 -0.012250 -0.049026 -0.122600 -0.266134 -0.956108 131 105 80 255 4
0.093090 -0.011751 -0.049693 -0.121874 -0.260117 -0.957855 131 104 79 255 4
0.097496 -0.011252 -0.050360 -0.120773 -0.253893 -0.959663 129 103 78 255 4
0.101901 -0.010753 -0.051027 -0.117609 -0.247182 -0.961805 130 102 78 255 4
0.106316 -0.010149 -0.051604 -0.113623 -0.240776 -0.963907 130 102 78 255 4
0.110718 -0.009651 -0.052271 -0.110569 -0.234853 -0.965722 130 102 77 255 4
0.115119 -0.009153 -0.052938 -0.107555 -0.229239 -0.967410 129 101 77 255 4
0.119530 -0.008550 -0.053515 -0.104989 -0.223889 -0.968943 130 102 78 255 4
0.123928 -0.008052 -0.054182 -0.101392 -0.219519 -0.970325 129 101 77 255 4
0.128337 -0.007450 -0.054759 -0.091641 -0.215908 -0.972104 130 103 78 255 4
0.132745 -0.006847 -0.055336 -0.077518 -0.213712 -0.973816 129 102 77 255 4
0.137152 -0.006245 -0.055914 -0.059022 -0.214662 -0.974903 130 102 78 255 4
0.141584 -0.005432 -0.056313 -0.037448 -0.212535 -0.976436 130 103 78 255 4
0.146057 -0.004303 -0.056447 -0.015601 -0.209297 -0.977728 130 102 78 255 4
0.150530 -0.003173 -0.056580 0.004382 -0.205470 -0.978654 129 102 78 255 4
0.155004 -0.002043 -0.056713 0.020762 -0.198367 -0.979908 128 101 77 255 4
0.159492 -0.000807 -0.056758 0.033063 -0.186296 -0.981937 127 99 76 255 4
0.163982 0.000429 -0.056803 0.056629 -0.171255 -0.983598 127 99 76 255 4
0.168473 0.001665 -0.056848 0.087292 -0.160545 -0.983161 127 98 75 255 4
0.172965 0.002902 -0.056893 0.126816 -0.146156 -0.981099 128 99 75 255 4
0.177488 0.004350 -0.056761 0.166125 -0.136506 -0.976611 129 99 75 255 4
0.182117 0.006540 -0.056008 0.208394 -0.123226 -0.970251 128 97 74 255 4
0.186827 0.009261 -0.054813 0.249548 -0.106544 -0.962483 128 97 73 255 4
0.191543 0.011983 -0.053618 0.278701 -0.088099 -0.956329 128 97 74 255 4
0.196265 0.014707 -0.052423 0.297091 -0.069814 -0.952294 126 96 73 255 4
0.200994 0.017431 -0.051229 0.305208 -0.053944 -0.950757 126 96 73 255 4
0.205792 0.020582 -0.049681 0.276074 -0.038726 -0.960356 125 96 73 255 4
0.210599 0.023734 -0.048133 0.205144 -0.030423 -0.978259 126 97 74 255 4
0.215446 0.027100 -0.046409 0.127823 -0.018546 -0.991624 124 95 72 255 4
0.220285 0.030361 -0.044774 0.044565 -0.014304 -0.998904 120 94 71 255 4
0.224249 0.027993 -0.047832 -0.001352 -0.031450 -0.999504 115 101 84 255 4
0.228859 0.029768 -0.047437 -0.026023 -0.031779 -0.999156 128 127 114 255 4
0.233335 0.030693 -0.047750 0.002237 -0.013639 -0.999904 131 131 118 255 4
0.237829 0.031724 -0.047975 0.064191 -0.006733 -0.997915 129 129 116 255 4
0.242306 0.032649 -0.048288 0.103892 0.012946 -0.994504 116 116 104 255 4
0.247011 0.034958 -0.047451 0.156553 0.030040 -0.987213 113 113 102 255 4
0.251899 0.038332 -0.045730 0.187947 0.078005 -0.979077 121 122 109 255 4
0.256849 0.042028 -0.043744 0.161489 0.074665 -0.984046 117 117 105 255 4
0.261809 0.045726 -0.041758 0.166632 0.081290 -0.982662 117 117 105 255 4
0.266779 0.049426 -0.039774 0.175812 0.090695 -0.980237 118 119 106 255 4
0.271147 0.049608 -0.040707 0.174048 0.085234 -0.981041 112 111 99 255 4
0.275363 0.048937 -0.042347 0.178620 0.075869 -0.980989 117 117 105 255 4
0.284881 0.078251 -0.019154 0.573658 0.224844 -0.787630 117 118 105 255 3
0.291103 0.088583 -0.011695 0.637422 0.202191 -0.743513 116 104 88 255 3
0.301037 0.119318 0.012635 -0.778956 0.201149 0.593942 110 83 62 255 3
0.306893 0.127108 0.017966 -0.765086 0.299996 0.569778 104 77 56 255 3
0.362544 0.405801 0.247197 -0.856759 0.450137 -0.251676 87 69 51 255 3
0.471041 0.226511 0.063624 -0.516430 -0.836317 0.184052 59 49 38 255 3
0.474580 0.222410 0.059161 -0.498115 -0.858361 0.122874 62 45 32 255 3
0.478205 0.218738 0.055050 -0.478581 -0.875884 0.061536 64 46 33 255 3
0.481970 0.215712 0.051468 -0.458400 -0.888068 -0.034715 68 50 36 255 3
0.485957 0.213657 0.048678 -0.396494 -0.905461 -0.151433 76 56 39 255 3
0.489985 0.211817 0.046064 -0.355027 -0.895376 -0.268807 86 63 44 255 3
0.494137 0.210515 0.043890 -0.315417 -0.875129 -0.366963 95 69 48 255 3
0.498468 0.209971 0.042332 -0.239931 -0.827427 -0.507738 98 71 49 255 3
0.502820 0.209534 0.040861 -0.190559 -0.782224 -0.593137 101 73 53 255 3
0.507330 0.209746 0.039918 -0.097835 -0.712402 -0.694919 104 75 55 255 3
0.511974 0.210500 0.039414 -0.055936 -0.647358 -0.760131 106 77 56 255 3
0.516590 0.211145 0.038822 0.002113 -0.571259 -0.820767 107 79 57 255 3
0.521315 0.212224 0.038581 0.051882 -0.481679 -0.874811 110 82 59 255 3
0.526152 0.213738 0.038691 0.090546 -0.411685 -0.906817 114 84 61 255 3
0.530991 0.215251 0.038801 0.117483 -0.358622 -0.926061 114 84 61 255 3
0.535832 0.216766 0.038911 0.137205 -0.305020 -0.942411 117 88 64 255 3
0.540788 0.218715 0.039372 0.148326 -0.263155 -0.953283 123 91 67 255 3
0.545719 0.220556 0.039745 0.160301 -0.226138 -0.960815 124 91 67 255 3
0.550653 0.222398 0.040117 0.161032 -0.198833 -0.966713 124 91 67 255 3
0.555705 0.224675 0.040840 0.165364 -0.171509 -0.971205 121 89 65 255 3
0.560762 0.226954 0.041563 0.167894 -0.141975 -0.975528 121 89 66 255 3
0.565971 0.229778 0.042724 0.165301 -0.129606 -0.977690 123 90 67 255 3
0.633395 0.462173 0.228615 0.188268 0.493287 -0.849249 110 91 69 255 3
-0.529299 -0.143896 -0.003115 -0.901673 0.420614 0.100345 86 75 58 255 2
-0.524117 -0.147959 -0.007970 -0.943884 0.287053 -0.163352 90 68 51 255 2
-0.519631 -0.147341 -0.008553 -0.961165 0.274487 0.028610 100 76 55 255 2
-0.514905 -0.148417 -0.010680 -0.915204 0.232932 0.328852 101 78 56 255 2
-0.510312 -0.148598 -0.011990 0.665539 -0.149006 -0.731338 95 71 54 255 2
-0.505890 -0.147582 -0.012209 0.550578 -0.064821 -0.832263 103 73 57 255 2
-0.504645 -0.123401 0.008637 -0.680434 -0.370532 -0.632230 95 66 51 255 2
-0.500112 -0.122875 0.007960 -0.673320 -0.427517 -0.603216 102 69 52 255 2
-0.495766 -0.120951 0.008555 -0.666347 -0.511453 -0.542585 111 75 56 255 2
-0.490708 -0.124423 0.004248 -0.626220 -0.548559 -0.554014 94 65 48 255 2
-0.486430 -0.121999 0.005296 -0.554120 -0.625992 -0.548713 104 68 52 255 2
-0.490965 -0.050448 0.069041 -0.405804 -0.902332 -0.145327 88 59 43 255 1
-0.486069 -0.051798 0.066632 -0.349916 -0.922822 -0.161118 73 48 33 255 1
-0.481169 -0.053249 0.064133 -0.301570 -0.936685 -0.177981 70 47 31 255 1
-0.476254 -0.054903 0.061453 -0.262886 -0.947608 -0.181468 72 49 33 255 1
-0.471385 -0.056259 0.059047 -0.229635 -0.952850 -0.198355 75 51 34 255 1
-0.466595 -0.057015 0.057184 -0.179100 -0.959893 -0.215705 77 54 36 255 1
-0.461858 -0.057371 0.055685 -0.116631 -0.959638 -0.255915 81 57 39 255 1
-0.457149 -0.057527 0.054368 -0.057842 -0.949117 -0.309565 83 60 41 255 1
-0.452433 -0.057785 0.052960 -0.003097 -0.936910 -0.349556 83 61 42 255 1
-0.447820 -0.057140 0.052368 0.029429 -0.930986 -0.363868 84 62 43 255 1
-0.443231 -0.056295 0.051957 0.063145 -0.921561 -0.383065 84 63 44 255 1
-0.438621 -0.055650 0.051365 0.093682 -0.906806 -0.411007 86 65 44 255 1
-0.434054 -0.054604 0.051135 0.119381 -0.893890 -0.432099 88 67 46 255 1
-0.429487 -0.053557 0.050906 0.154396 -0.884001 -0.441254 92 68 47 255 1
-0.424848 -0.053215 0.050042 0.195759 -0.875471 -0.441848 92 69 47 255 1
-0.420221 -0.052773 0.049270 0.231667 -0.858156 -0.458146 92 68 46 255 1
-0.415694 -0.051324 0.049402 0.278099 -0.850000 -0.447394 91 67 45 255 1
-0.411213 -0.049371 0.049987 0.323621 -0.842508 -0.430639 91 67 45 255 1
-0.406738 -0.047317 0.050663 0.365140 -0.835955 -0.409697 91 66 44 255 1
-0.402259 -0.045262 0.051338 -0.384710 0.840810 0.380837 91 66 44 255 1
-0.397766 -0.043307 0.051922 -0.384590 0.848839 0.362717 93 67 44 255 1
-0.393279 -0.041251 0.052596 -0.376187 0.859660 0.345641 94 66 43 255 1
-0.388770 -0.039395 0.053090 -0.371030 0.866834 0.333071 93 65 42 255 1
-0.384224 -0.037943 0.053221 -0.373552 0.871312 0.318236 91 63 41 255 1
-0.379677 -0.036490 0.053352 -0.383278 0.870531 0.308665 88 61 40 255 1
-0.375119 -0.035137 0.053393 -0.403039 0.867957 0.290189 87 60 39 255 1
-0.370623 -0.032976 0.054156 -0.430510 0.860915 0.271085 86 59 39 255 1
-0.366122 -0.030814 0.054920 -0.463326 0.849179 0.253426 84 58 38 255 1
-0.361632 -0.028449 0.055863 -0.507927 0.832453 0.221433 82 57 36 255 1
-0.357130 -0.026184 0.056716 -0.561453 0.801314 0.206561 82 55 35 255 1
-0.352659 -0.023412 0.058021 -0.610399 0.769812 0.186552 80 54 33 255 1
-0.348278 -0.019222 0.060589 -0.673253 0.722270 0.158293 83 54 34 255 1
-0.343886 -0.015028 0.063157 -0.704271 0.697170 0.134003 83 55 35 255 1
-0.339521 -0.010225 0.066266 -0.713988 0.687934 0.130265 82 54 34 255 1
-0.335143 -0.005419 0.069374 -0.685394 0.716628 0.129146 81 54 34 255 1
-0.330681 -0.001725 0.071487 -0.654341 0.745823 0.124844 80 54 34 255 1
-0.326210 0.001971 0.073600 -0.601295 0.788773 0.127600 82 57 37 255 1
-0.321669 0.004655 0.074810 -0.566232 0.813463 0.132892 83 61 41 255 1
-0.317129 0.007441 0.076110 -0.525209 0.838488 0.145233 86 63 43 255 1
-0.312564 0.009924 0.077138 -0.455282 0.877332 0.151682 89 67 47 255 1
-0.307989 0.012307 0.078076 -0.394164 0.907628 0.144384 90 68 48 255 1
-0.303389 0.014284 0.078652 -0.328018 0.936207 0.126176 93 71 50 255 1
-0.298755 0.015653 0.078688 -0.216592 0.969323 0.116193 94 71 49 255 1
-0.294124 0.017123 0.078813 0.087379 -0.986991 -0.134958 95 72 50 255 1
-0.289423 0.017067 0.077586 -0.029839 -0.984529 -0.172665 94 70 49 255 1
-0.284708 0.016604 0.075998 -0.161014 -0.968705 -0.188907 93 68 48 255 1
-0.280003 0.016241 0.074501 -0.314062 -0.933462 -0.173243 94 70 50 255 1
-0.275246 0.014452 0.071743 -0.401224 -0.896184 -0.189405 94 71 52 255 1
-0.270457 0.011540 0.067994 -0.539628 -0.823145 -0.176731 97 74 53 255 1
-0.265650 0.007707 0.063436 -0.640367 -0.736721 -0.217191 99 74 54 255 1
-0.260833 0.003055 0.058158 -0.759136 -0.615472 -0.211912 102 75 54 255 4
-0.256034 -0.001703 0.052791 -0.803109 -0.527929 -0.276239 108 78 56 255 4
-0.251027 -0.014016 0.040762 -0.925432 -0.203145 -0.319856 117 89 65 255 4
-0.245761 -0.037262 0.019101 -0.784886 0.040739 -0.618299 121 96 71 255 2
-0.241028 -0.043677 0.012302 -0.703992 -0.028392 -0.709640 123 98 72 255 2
-0.236365 -0.048361 0.007035 -0.634928 -0.105042 -0.765397 124 100 73 255 2
-0.231767 -0.051107 0.003479 -0.589459 -0.131138 -0.797083 127 102 75 255 2
-0.227194 -0.053243 0.000464 -0.533509 -0.170214 -0.828490 129 104 76 255 2
-0.222651 -0.054460 -0.001741 -0.489487 -0.198433 -0.849133 130 105 77 255 2
-0.218118 -0.055474 -0.003764 -0.449426 -0.219931 -0.865822 132 107 79 255 4
-0.213588 -0.056797 -0.006058 -0.404222 -0.255123 -0.878360 132 107 79 255 4
-0.209072 -0.057712 -0.007991 -0.376820 -0.281989 -0.882320 131 107 79 255 4
-0.204569 -0.058117 -0.009473 -0.350968 -0.304520 -0.885488 131 107 79 255 4
-0.200071 -0.058420 -0.010866 -0.324750 -0.337469 -0.883545 131 107 79 255 4
-0.195578 -0.058826 -0.012348 -0.300984 -0.375854 -0.876437 131 105 78 255 4
-0.191088 -0.059336 -0.013920 -0.285371 -0.406713 -0.867841 131 105 78 255 4
-0.186603 -0.059847 -0.015491 -0.274548 -0.443295 -0.853295 130 104 77 255 4
-0.182126 -0.059845 -0.016613 -0.269682 -0.469277 -0.840863 130 104 77 255 4
-0.177651 -0.059948 -0.017824 -0.258882 -0.500074 -0.826381 130 104 77 255 4
-0.173180 -0.059948 -0.018946 -0.256660 -0.521641 -0.813644 128 103 77 255 4
-0.168713 -0.060052 -0.020156 -0.250864 -0.557981 -0.791027 126 102 76 255 4
-0.164249 -0.060156 -0.021367 -0.255624 -0.591944 -0.764368 125 101 75 255 4
-0.159790 -0.060364 -0.022667 -0.261178 -0.624373 -0.736169 123 100 75 255 4
-0.155336 -0.060779 -0.024146 -0.264068 -0.661070 -0.702321 123 100 75 255 4
-0.150889 -0.061298 -0.025715 -0.256627 -0.685874 -0.680969 121 98 73 255 4
-0.146444 -0.061611 -0.027104 -0.243559 -0.698979 -0.672389 120 98 74 255 4
-0.142004 -0.061926 -0.028493 -0.221518 -0.715792 -0.662247 118 96 72 255 4
-0.137566 -0.062139 -0.029791 -0.200854 -0.724286 -0.659596 116 95 72 255 4
-0.133129 -0.062146 -0.030910 -0.190099 -0.723420 -0.663721 114 93 70 255 4
-0.128694 -0.062051 -0.031939 -0.171276 -0.725442 -0.666633 113 92 69 255 4
-0.124263 -0.062060 -0.033057 -0.150846 -0.727900 -0.668885 114 92 70 255 4
-0.119841 -0.062275 -0.034355 -0.126635 -0.735948 -0.665089 114 90 68 255 4
-0.115410 -0.061976 -0.035204 -0.100237 -0.735749 -0.669795 115 91 69 255 4
-0.110979 -0.061574 -0.035963 -0.071875 -0.737442 -0.671575 114 90 68 255 4
-0.106552 -0.061275 -0.036811 -0.047870 -0.731552 -0.680103 114 90 68 255 4
-0.102125 -0.060874 -0.037570 -0.026967 -0.731718 -0.681074 112 89 66 255 4
-0.097693 -0.060266 -0.038150 -0.004515 -0.726536 -0.687114 113 90 67 255 4
-0.093266 -0.059762 -0.038819 0.021805 -0.717089 -0.696640 113 90 67 255 4
-0.088832 -0.059052 -0.039308 0.043837 -0.705259 -0.707593 113 89 67 255 4
-0.084400 -0.058341 -0.039798 0.060237 -0.692440 -0.718956 113 89 67 255 4
-0.079952 -0.057217 -0.039929 0.070346 -0.676514 -0.733062 112 88 66 255 4
-0.075512 -0.056299 -0.040240 0.069843 -0.662531 -0.745771 113 89 66 255 4
-0.071071 -0.055382 -0.040550 0.062472 -0.645952 -0.760818 115 91 67 255 4
-0.066631 -0.054465 -0.040861 0.037810 -0.630304 -0.775427 115 91 67 255 4
-0.062196 -0.053651 -0.041261 0.021019 -0.609262 -0.792690 115 92 68 255 4
-0.057761 -0.052837 -0.041661 -0.000869 -0.587801 -0.809005 115 93 68 255 4
-0.053347 -0.052439 -0.042419 -0.017531 -0.565629 -0.824473 116 95 69 255 4
-0.048940 -0.052144 -0.043266 -0.023058 -0.540831 -0.840815 118 95 70 255 4
-0.044529 -0.051746 -0.044024 -0.015029 -0.517503 -0.855549 120 96 71 255 4
-0.040127 -0.051453 -0.044871 0.002380 -0.502200 -0.864748 120 96 71 255 4
-0.035703 -0.050744 -0.045360 0.040666 -0.488734 -0.871484 121 98 72 255 4
-0.031243 -0.049412 -0.045312 0.074884 -0.471294 -0.878792 121 97 72 255 4
-0.026782 -0.048080 -0.045265 0.111108 -0.463627 -0.879036 121 98 72 255 4
-0.022320 -0.046747 -0.045218 0.151187 -0.442763 -0.883800 121 97 72 255 4
-0.017836 -0.045102 -0.044902 0.190614 -0.414722 -0.889760 122 98 72 255 4
-0.013315 -0.042936 -0.044140 0.215286 -0.372216 -0.902833 123 97 72 255 4
-0.008804 -0.040977 -0.043557 0.239685 -0.337226 -0.910401 123 97 72 255 4
-0.004296 -0.039121 -0.043064 0.253071 -0.307583 -0.917250 123 98 73 255 4
0.000207 -0.037370 -0.042660 0.253794 -0.288613 -0.923196 124 99 73 255 4
0.004729 -0.035409 -0.042078 0.250127 -0.282354 -0.926128 125 100 74 255 4
0.009254 -0.033447 -0.041496 0.238652 -0.289993 -0.926795 125 101 74 255 4
0.013783 -0.031484 -0.040914 0.211297 -0.309836 -0.927014 126 101 75 255 4
0.018324 -0.029417 -0.040244 0.162388 -0.337134 -0.927346 126 100 75 255 4
0.022870 -0.027348 -0.039573 0.113937 -0.349062 -0.930147 128 101 76 255 4
0.027325 -0.026428 -0.039885 0.071879 -0.356855 -0.931390 127 100 75 255 4
0.031781 -0.025507 -0.040197 0.036999 -0.369910 -0.928330 128 101 77 255 4
0.036228 -0.024691 -0.040597 0.006854 -0.382793 -0.923809 127 101 77 255 4
0.040684 -0.023770 -0.040909 -0.010853 -0.390652 -0.920474 128 102 78 255 4
0.045130 -0.022954 -0.041310 -0.020834 -0.391867 -0.919786 127 102 78 255 4
0.049576 -0.022138 -0.041711 -0.034439 -0.386359 -0.921705 128 103 79 255 4
0.054012 -0.021427 -0.042200 -0.048511 -0.373933 -0.926186 128 104 79 255 4
0.058438 -0.020821 -0.042779 -0.065362 -0.364140 -0.929048 128 104 79 255 4
0.062872 -0.020110 -0.043269 -0.079070 -0.349137 -0.933730 127 103 79 255 4
0.067286 -0.019609 -0.043937 -0.091479 -0.336994 -0.937052 128 105 80 255 4
0.071687 -0.019213 -0.044694 -0.103719 -0.327615 -0.939101 128 105 80 255 4
0.076087 -0.018817 -0.045451 -0.114033 -0.320609 -0.940323 128 105 80 255 4
0.080485 -0.018422 -0.046208 -0.121262 -0.314799 -0.941380 129 105 80 255 4
0.084902 -0.017817 -0.046786 -0.123540 -0.309412 -0.942869 128 103 79 255 4
0.089286 -0.017528 -0.047632 -0.124124 -0.304118 -0.944513 128 102 77 255 4
0.093678 -0.017133 -0.048388 -0.123867 -0.297186 -0.946751 129 102 77 255 4
0.098080 -0.016635 -0.049055 -0.122976 -0.291101 -0.948755 129 101 77 255 4
0.102480 -0.016136 -0.049723 -0.120040 -0.284733 -0.951061 130 101 77 255 4
0.106891 -0.015533 -0.050301 -0.116346 -0.277894 -0.953540 130 102 78 255 4
0.111289 -0.015035 -0.050967 -0.112494 -0.271394 -0.955871 129 101 77 255 4
0.115685 -0.014537 -0.051634 -0.109526 -0.265088 -0.957983 129 101 77 255 4
0.120092 -0.013935 -0.052212 -0.106532 -0.258909 -0.960009 129 102 77 255 4
0.124485 -0.013438 -0.052879 -0.101317 -0.252408 -0.962302 129 102 77 255 4
0.128877 -0.012941 -0.053545 -0.090250 -0.247171 -0.964760 130 103 78 255 4
0.133268 -0.012445 -0.054211 -0.074605 -0.242729 -0.967221 131 103 78 255 4
0.137670 -0.011843 -0.054789 -0.056431 -0.241731 -0.968701 131 103 78 255 4
0.142097 -0.011031 -0.055188 -0.035096 -0.237025 -0.970869 130 103 78 255 4
0.146565 -0.009903 -0.055321 -0.015385 -0.231164 -0.972793 130 103 78 255 4
0.151020 -0.008880 -0.055543 0.001619 -0.223570 -0.974687 129 102 77 255 4
0.155489 -0.007751 -0.055676 0.012946 -0.214031 -0.976741 128 101 77 255 4
0.159959 -0.006622 -0.055808 0.024823 -0.207103 -0.978004 126 99 76 255 4
0.164444 -0.005387 -0.055853 0.049204 -0.197900 -0.978986 126 99 76 255 4
0.168944 -0.004047 -0.055808 0.085731 -0.183284 -0.979315 126 98 76 255 4
0.173431 -0.002812 -0.055852 0.123360 -0.173564 -0.977066 127 98 76 255 4
0.177920 -0.001576 -0.055897 0.167930 -0.163235 -0.972190 126 97 74 255 4
0.182529 0.000505 -0.055231 0.210646 -0.154834 -0.965223 127 96 74 255 4
0.187234 0.003223 -0.054032 0.251150 -0.143067 -0.957317 127 96 73 255 4
0.191945 0.005942 -0.052835 0.279536 -0.126085 -0.951820 128 96 73 255 4
0.196663 0.008662 -0.051637 0.295828 -0.107539 -0.949169 127 96 73 255 4
0.201387 0.011384 -0.050440 0.304954 -0.087592 -0.948330 126 95 73 255 4
0.206117 0.014106 -0.049244 0.273023 -0.069238 -0.959513 125 96 73 255 4
0.210854 0.016830 -0.048048 0.203704 -0.058830 -0.977263 124 95 72 255 4
0.215662 0.019980 -0.046497 0.134393 -0.041101 -0.990075 122 93 71 255 4
0.220494 0.023237 -0.044859 0.049222 -0.048795 -0.997595 117 90 69 255 4
0.224400 0.020553 -0.048187 0.011110 -0.053462 -0.998508 116 101 83 255 4
0.229019 0.022432 -0.047701 -0.017936 -0.055751 -0.998284 128 127 114 255 4
0.233659 0.024417 -0.047127 -0.005152 -0.048090 -0.998830 131 132 119 255 4
0.238147 0.025447 -0.047351 0.050383 -0.030578 -0.998262 132 132 119 255 4
0.242618 0.026371 -0.047664 0.110150 -0.029668 -0.993472 121 121 108 255 4
0.247318 0.028677 -0.046825 0.150972 -0.001362 -0.988537 111 111 99 255 4
0.252058 0.031196 -0.045808 0.174714 0.028450 -0.984208 112 112 100 255 4
0.256804 0.033717 -0.044793 0.184185 0.050842 -0.981576 112 112 100 255 4
0.261538 0.036132 -0.043866 0.185813 0.034150 -0.981992 114 115 102 255 4
0.266313 0.038762 -0.042763 0.187984 0.046056 -0.981092 118 118 106 255 4
0.271280 0.042458 -0.040774 0.182533 0.042752 -0.982270 110 109 98 255 4
0.275807 0.043598 -0.040911 0.224280 0.055404 -0.972948 111 110 99 255 4
0.285292 0.072664 -0.017857 0.581571 0.232462 -0.779575 111 113 101 255 3
0.290347 0.076481 -0.015784 0.608669 0.229170 -0.759607 114 108 96 255 3
0.301818 0.115711 0.015666 -0.795202 0.160732 0.584653 115 87 61 255 3
0.307910 0.124773 0.022068 -0.765086 0.299996 0.569778 101 75 54 255 3
0.476943 0.225409 0.067744 -0.510894 -0.837519 0.193775 60 54 41 255 3
0.480112 0.219801 0.062043 -0.485699 -0.866060 0.118477 64 49 34 255 3
0.483727 0.216133 0.057927 -0.482996 -0.873054 0.067013 64 47 33 255 3
0.487404 0.212785 0.054076 -0.471152 -0.882043 -0.003903 68 50 34 255 3
0.491409 0.210841 0.051370 -0.405945 -0.904296 -0.132127 76 55 38 255 3
0.495405 0.208894 0.048665 -0.369300 -0.894427 -0.252224 86 61 42 255 3
0.499523 0.207486 0.046401 -0.322305 -0.865912 -0.382512 97 69 48 255 3
0.503877 0.207051 0.044928 -0.259723 -0.828223 -0.496579 101 72 51 255 3
0.508225 0.206614 0.043456 -0.214559 -0.783833 -0.582727 103 73 53 255 3
0.512650 0.206502 0.042248 -0.120730 -0.713920 -0.689741 103 74 53 255 3
0.517264 0.207147 0.041656 -0.066250 -0.636368 -0.768536 105 77 56 255 3
0.521878 0.207792 0.041064 -0.019393 -0.575020 -0.817910 107 79 58 255 3
0.526545 0.208654 0.040648 0.031837 -0.489158 -0.871614 110 82 60 255 3
0.531381 0.210166 0.040759 0.069660 -0.419592 -0.905036 113 85 62 255 3
0.536190 0.211571 0.040782 0.094194 -0.364689 -0.926353 117 89 65 255 3
0.541029 0.213084 0.040893 0.103634 -0.310338 -0.944961 120 90 66 255 3
0.545956 0.214923 0.041267 0.122882 -0.264410 -0.956550 122 90 65 255 3
0.550886 0.216763 0.041641 0.137184 -0.223842 -0.964922 121 89 64 255 3
0.555761 0.218387 0.041839 0.134208 -0.199921 -0.970577 120 88 63 255 3
0.560725 0.220336 0.042300 0.142187 -0.167523 -0.975561 120 88 63 255 3
0.565752 0.222504 0.042937 0.151342 -0.128602 -0.980080 122 90 66 255 3
0.570783 0.224673 0.043573 0.141730 -0.109260 -0.983857 125 94 69 255 3
0.576294 0.228584 0.045614 0.140653 -0.094493 -0.985539 124 93 70 255 3
-0.530749 -0.162104 -0.012560 -0.617826 -0.057101 -0.784239 94 85 66 255 2
-0.525940 -0.163777 -0.015236 -0.508282 -0.103462 -0.854953 130 101 78 255 2
-0.521433 -0.163461 -0.016091 -0.482495 -0.093747 -0.870867 123 96 77 255 2
-0.517029 -0.162448 -0.016309 -0.391507 -0.112356 -0.913290 127 102 81 255 2
-0.512425 -0.162830 -0.017801 -0.343668 -0.107246 -0.932947 127 106 75 255 2
-0.508452 -0.126016 0.013505 -0.613043 -0.265695 -0.744032 91 63 44 255 2
-0.503765 -0.126586 0.011828 -0.730398 -0.346365 -0.588685 85 56 40 255 2
-0.499394 -0.124863 0.012242 -0.650587 -0.471336 -0.595465 107 69 51 255 2
-0.495259 -0.121342 0.014292 -0.609713 -0.613196 -0.502236 110 76 57 255 2
-0.488363 -0.138786 -0.002747 -0.646374 -0.635435 0.422400 123 94 73 255 2
-0.483938 -0.137666 -0.002876 0.585022 0.344217 -0.734346 141 98 78 255 2
-0.479690 -0.135148 -0.001733 -0.319492 -0.707300 -0.630597 134 91 72 255 2
-0.475700 -0.130529 0.001317 -0.384188 -0.808439 -0.445900 114 80 61 255 2
-0.480541 -0.054314 0.069412 -0.283032 -0.947138 -0.151071 89 62 44 255 1
-0.475623 -0.055964 0.066729 -0.244472 -0.957439 -0.153443 69 49 33 255 1
-0.470715 -0.057616 0.064046 -0.226140 -0.961089 -0.158648 71 48 32 255 1
-0.465946 -0.058169 0.062363 -0.188042 -0.968887 -0.160927 74 51 34 255 1
-0.461229 -0.058323 0.061043 -0.131894 -0.974477 -0.181657 79 55 38 255 1
-0.456517 -0.058477 0.059724 -0.086559 -0.971623 -0.220127 78 55 39 255 1
-0.451797 -0.058732 0.058314 -0.029974 -0.966334 -0.255537 81 59 41 255 1
-0.447081 -0.058988 0.056904 0.022506 -0.954939 -0.295947 81 60 42 255 1
-0.442436 -0.058644 0.056040 0.057489 -0.948758 -0.310731 82 62 43 255 1
-0.437846 -0.057798 0.055629 0.087027 -0.939413 -0.331557 83 63 43 255 1
-0.433287 -0.056651 0.055490 0.123303 -0.933060 -0.337930 85 64 44 255 1
-0.428739 -0.055404 0.055442 0.170450 -0.923892 -0.342595 86 64 44 255 1
-0.424118 -0.054859 0.054759 0.214191 -0.912366 -0.348870 87 64 43 255 1
-0.419479 -0.054516 0.053894 0.253753 -0.896424 -0.363365 87 64 43 255 1
-0.414989 -0.052665 0.054390 0.301559 -0.886233 -0.351643 87 63 42 255 1
-0.410485 -0.050915 0.054795 -0.344724 0.876048 0.337201 88 64 43 255 1
-0.405988 -0.049063 0.055290 -0.381918 0.865810 0.323282 88 63 42 255 1
-0.401487 -0.047210 0.055786 -0.399340 0.865994 0.300969 88 63 41 255 1
-0.397002 -0.045155 0.056462 -0.395479 0.870694 0.292385 88 63 41 255 1
-0.392503 -0.043200 0.057047 -0.387176 0.877127 0.284153 88 62 41 255 1
-0.388009 -0.041144 0.057722 -0.382520 0.882644 0.273162 87 61 39 255 1
-0.383469 -0.039590 0.057945 -0.389833 0.884388 0.256685 85 59 38 255 1
-0.378935 -0.037936 0.058258 -0.404956 0.883463 0.235592 83 57 37 255 1
-0.374422 -0.035978 0.058842 -0.421613 0.879944 0.218953 83 57 36 255 1
-0.369945 -0.033515 0.059879 -0.451310 0.871327 0.192635 81 54 35 255 1
-0.365463 -0.031051 0.060915 -0.492154 0.855970 0.158430 80 54 35 255 1
-0.360960 -0.028787 0.061770 -0.533516 0.835186 0.133509 80 53 34 255 1
-0.356481 -0.026119 0.062986 -0.577589 0.808954 0.109474 78 52 32 255 1
-0.352053 -0.022640 0.064926 -0.621977 0.776837 0.098330 76 51 31 255 1
-0.347651 -0.018654 0.067318 -0.668338 0.740530 0.070281 76 51 32 255 1
-0.343230 -0.014767 0.069618 -0.701196 0.710435 0.060054 77 51 32 255 1
-0.338858 -0.009967 0.072732 -0.695499 0.715849 0.061972 76 51 32 255 1
-0.334453 -0.005468 0.075573 -0.664270 0.744856 0.062727 76 52 33 255 1
-0.329979 -0.001877 0.077600 -0.627835 0.775814 0.062728 74 51 33 255 1
-0.325489 0.001614 0.079535 -0.598774 0.798835 0.057726 78 55 36 255 1
-0.320937 0.004195 0.080657 -0.554945 0.829874 0.057841 77 56 37 255 1
-0.316391 0.006980 0.081958 -0.498997 0.863338 0.075159 79 59 40 255 1
-0.311821 0.009462 0.082989 -0.451724 0.890054 0.061232 81 61 42 255 1
-0.307257 0.012149 0.084199 -0.390683 0.916762 0.083151 83 63 44 255 1
-0.302640 0.013923 0.084596 -0.301898 0.945556 0.121579 85 64 45 255 1
-0.297991 0.015089 0.084451 -0.185547 0.974011 0.129904 87 66 46 255 1
-0.293337 0.016153 0.084215 0.069073 -0.990860 -0.115870 87 66 46 255 1
-0.288627 0.015998 0.082896 -0.078361 -0.988381 -0.130240 87 66 46 255 1
-0.283918 0.015740 0.081487 -0.167348 -0.977999 -0.124545 88 67 47 255 1
-0.279213 0.015482 0.080078 -0.330517 -0.934158 -0.134560 91 69 49 255 1
-0.274421 0.012883 0.076594 -0.462274 -0.875779 -0.138971 94 71 51 255 1
-0.269643 0.010281 0.073110 -0.530548 -0.835581 -0.142557 97 73 53 255 1
-0.264823 0.006150 0.068274 -0.663644 -0.736449 -0.131221 99 74 53 255 4
-0.259965 0.000283 0.061905 -0.762082 -0.618157 -0.192645 103 77 55 255 4
-0.255147 -0.005079 0.055990 -0.805766 -0.536957 -0.249837 112 84 60 255 4
-0.249563 -0.036945 0.026625 -0.807058 0.060292 -0.587387 119 97 71 255 4
-0.244701 -0.047322 0.016297 -0.708326 -0.027012 -0.705368 124 101 75 255 2
-0.240039 -0.051589 0.011382 -0.665910 -0.083525 -0.741342 126 102 76 255 2
-0.235409 -0.055349 0.006919 -0.606292 -0.131027 -0.784374 126 102 75 255 2
-0.230833 -0.057480 0.003899 -0.556591 -0.170211 -0.813163 129 105 77 255 2
-0.226278 -0.059103 0.001331 -0.503391 -0.216477 -0.836502 130 106 78 255 2
-0.221741 -0.060319 -0.000876 -0.457956 -0.239266 -0.856171 130 107 78 255 2
-0.217214 -0.061332 -0.002902 -0.411405 -0.269839 -0.870593 130 106 78 255 4
-0.212696 -0.062244 -0.004838 -0.371635 -0.306665 -0.876267 130 107 79 255 4
-0.208191 -0.062749 -0.006413 -0.342336 -0.338175 -0.876609 130 107 79 255 4
-0.203692 -0.063152 -0.007897 -0.309916 -0.374221 -0.874020 130 107 79 255 4
-0.199197 -0.063557 -0.009381 -0.281620 -0.415232 -0.865028 129 105 78 255 4
-0.194709 -0.063860 -0.010775 -0.260443 -0.445481 -0.856573 129 104 78 255 4
-0.190226 -0.063857 -0.011898 -0.252152 -0.470361 -0.845683 129 103 77 255 4
-0.185747 -0.063854 -0.013021 -0.239493 -0.498262 -0.833294 130 103 76 255 4
-0.181271 -0.063955 -0.014234 -0.230658 -0.516773 -0.824465 129 102 75 255 4
-0.176799 -0.063954 -0.015357 -0.217973 -0.549208 -0.806758 129 102 76 255 4
-0.172330 -0.063953 -0.016479 -0.210867 -0.581054 -0.786073 127 101 75 255 4
-0.167865 -0.064056 -0.017691 -0.204868 -0.615487 -0.761055 126 101 76 255 4
-0.163404 -0.064160 -0.018903 -0.207121 -0.646187 -0.734536 125 101 76 255 4
-0.158945 -0.064162 -0.020025 -0.212762 -0.673995 -0.707434 123 100 75 255 4
-0.154492 -0.064369 -0.021326 -0.221969 -0.696352 -0.682513 122 99 74 255 4
-0.150044 -0.064681 -0.022717 -0.220148 -0.719057 -0.659160 122 98 74 255 4
-0.145600 -0.064993 -0.024107 -0.211344 -0.737235 -0.641730 120 98 73 255 4
-0.141158 -0.065101 -0.025318 -0.196102 -0.750874 -0.630660 117 95 71 255 4
-0.136720 -0.065209 -0.026528 -0.181056 -0.760421 -0.623682 116 95 71 255 4
-0.132286 -0.065319 -0.027738 -0.170535 -0.763225 -0.623222 113 93 69 255 4
-0.127853 -0.065326 -0.028858 -0.152919 -0.768825 -0.620905 113 92 69 255 4
-0.123421 -0.065230 -0.029887 -0.132631 -0.773359 -0.619939 111 90 67 255 4
-0.118997 -0.065342 -0.031097 -0.111059 -0.777274 -0.619283 111 89 67 255 4
-0.114564 -0.064939 -0.031857 -0.084558 -0.779051 -0.621232 113 90 67 255 4
-0.110133 -0.064536 -0.032616 -0.054261 -0.780344 -0.622992 112 89 67 255 4
-0.105704 -0.064133 -0.033376 -0.027797 -0.781129 -0.623751 111 88 66 255 4
-0.101279 -0.063835 -0.034225 -0.011873 -0.781731 -0.623502 110 88 66 255 4
-0.096848 -0.063227 -0.034805 0.002068 -0.776619 -0.629968 110 88 66 255 4
-0.092417 -0.062619 -0.035385 0.023443 -0.766595 -0.641703 110 88 66 255 4
-0.087987 -0.062011 -0.035965 0.040998 -0.754118 -0.655458 111 87 66 255 4
-0.083562 -0.061507 -0.036634 0.052767 -0.736548 -0.674323 112 88 66 255 4
-0.079135 -0.060900 -0.037214 0.058148 -0.720370 -0.691149 113 88 66 255 4
-0.074692 -0.059879 -0.037434 0.057449 -0.705122 -0.706755 113 88 65 255 4
-0.070253 -0.058962 -0.037745 0.043919 -0.688546 -0.723862 113 89 65 255 4
-0.065814 -0.058045 -0.038055 0.024048 -0.678924 -0.733814 114 90 66 255 4
-0.061375 -0.057128 -0.038366 0.002346 -0.663379 -0.748280 114 91 66 255 4
-0.056941 -0.056314 -0.038766 -0.020789 -0.646834 -0.762348 114 91 66 255 4
-0.052533 -0.056019 -0.039614 -0.035478 -0.628633 -0.776892 115 93 67 255 4
-0.048127 -0.055724 -0.040462 -0.032087 -0.610673 -0.791233 116 93 68 255 4
-0.043718 -0.055326 -0.041220 -0.020941 -0.593988 -0.804202 119 94 69 255 4
-0.039305 -0.054824 -0.041889 0.005753 -0.577588 -0.816308 118 94 69 255 4
-0.034876 -0.054012 -0.042288 0.043116 -0.561517 -0.826341 120 95 70 255 4
-0.030435 -0.052992 -0.042509 0.081488 -0.543991 -0.835125 120 96 70 255 4
-0.025994 -0.051971 -0.042730 0.131598 -0.527425 -0.839348 119 96 70 255 4
-0.021552 -0.050951 -0.042950 0.157749 -0.528328 -0.834257 120 96 71 255 4
-0.017097 -0.049723 -0.042992 0.190155 -0.502982 -0.843119 119 95 70 255 4
-0.012620 -0.048183 -0.042765 0.220144 -0.474066 -0.852524 121 95 70 255 4
-0.008134 -0.046538 -0.042449 0.239024 -0.441413 -0.864882 122 96 71 255 4
-0.003638 -0.044789 -0.042043 0.263898 -0.410626 -0.872780 122 96 71 255 4
0.000869 -0.042935 -0.041549 0.274182 -0.387799 -0.880021 122 97 72 255 4
0.005386 -0.040976 -0.040965 0.282142 -0.373954 -0.883490 123 97 72 255 4
0.009930 -0.038704 -0.040113 0.267713 -0.371866 -0.888845 123 99 73 255 4
0.014488 -0.036327 -0.039172 0.244770 -0.378787 -0.892529 124 98 72 255 4
0.019050 -0.033949 -0.038231 0.199877 -0.388081 -0.899690 125 99 73 255 4
0.023568 -0.032195 -0.037827 0.148478 -0.403699 -0.902763 125 100 74 255 4
0.028020 -0.031275 -0.038138 0.106684 -0.420641 -0.900933 125 99 74 255 4
0.032473 -0.030355 -0.038450 0.065873 -0.426204 -0.902226 125 99 74 255 4
0.036925 -0.029435 -0.038761 0.028828 -0.437479 -0.898766 125 100 75 255 4
0.041405 -0.028202 -0.038805 0.003499 -0.442877 -0.896576 126 101 76 255 4
0.045839 -0.027491 -0.039295 -0.016253 -0.442057 -0.896839 125 100 76 255 4
0.050254 -0.026989 -0.039963 -0.038353 -0.429317 -0.902339 125 100 76 255 4
0.054677 -0.026383 -0.040543 -0.054493 -0.416579 -0.907465 125 101 76 255 4
0.059099 -0.025777 -0.041122 -0.074560 -0.410869 -0.908641 126 102 77 255 4
0.063530 -0.025066 -0.041612 -0.082947 -0.392759 -0.915893 127 103 78 255 4
0.067929 -0.024670 -0.042369 -0.092832 -0.383237 -0.918973 127 103 79 255 4
0.072337 -0.024169 -0.043037 -0.104926 -0.380642 -0.918750 127 103 78 255 4
0.076744 -0.023669 -0.043705 -0.114036 -0.373680 -0.920521 127 103 79 255 4
0.081160 -0.023064 -0.044284 -0.120839 -0.364302 -0.923408 127 103 78 255 4
0.085552 -0.022670 -0.045041 -0.124482 -0.360615 -0.924371 127 102 78 255 4
0.089943 -0.022275 -0.045798 -0.127315 -0.351161 -0.927619 127 102 77 255 4
0.094332 -0.021881 -0.046555 -0.128385 -0.340144 -0.931568 128 102 77 255 4
0.098708 -0.021592 -0.047401 -0.126992 -0.330025 -0.935391 127 100 77 255 4
0.103093 -0.021199 -0.048158 -0.123617 -0.320457 -0.939162 128 101 78 255 4
0.107476 -0.020806 -0.048914 -0.119167 -0.312782 -0.942320 128 101 77 255 4
0.111870 -0.020308 -0.049581 -0.115454 -0.305826 -0.945061 127 100 77 255 4
0.116262 -0.019811 -0.050248 -0.112000 -0.299070 -0.947636 128 102 78 255 4
0.120664 -0.019209 -0.050826 -0.109117 -0.291830 -0.950226 128 102 78 255 4
0.125054 -0.018713 -0.051493 -0.102294 -0.285154 -0.953007 129 103 78 255 4
0.129454 -0.018111 -0.052071 -0.089574 -0.278914 -0.956129 130 103 78 255 4
0.133853 -0.017510 -0.052648 -0.072767 -0.273726 -0.959051 130 103 77 255 4
0.138238 -0.017014 -0.053315 -0.054199 -0.268676 -0.961705 131 103 77 255 4
0.142675 -0.016097 -0.053625 -0.034762 -0.262877 -0.964203 129 102 77 255 4
0.147112 -0.015180 -0.053935 -0.017887 -0.257397 -0.966140 128 102 77 255 4
0.151550 -0.014264 -0.054246 -0.004160 -0.247574 -0.968860 128 102 77 255 4
0.155987 -0.013347 -0.054556 0.006129 -0.235924 -0.971752 127 101 77 255 4
0.160452 -0.012219 -0.054688 0.021870 -0.226655 -0.973730 126 100 76 255 4
0.164918 -0.011091 -0.054821 0.051833 -0.222308 -0.973598 126 100 76 255 4
0.169399 -0.009858 -0.054864 0.082367 -0.213570 -0.973449 126 99 76 255 4
0.173881 -0.008624 -0.054908 0.120487 -0.204283 -0.971469 126 98 75 255 4
0.178424 -0.006968 -0.054595 0.168867 -0.197822 -0.965583 127 97 75 255 4
0.183045 -0.004783 -0.053839 0.218437 -0.182453 -0.958643 126 96 73 255 4
0.187685 -0.002491 -0.052993 0.251701 -0.168432 -0.953036 127 96 73 255 4
0.192346 -0.000092 -0.052060 0.277469 -0.155004 -0.948148 127 96 73 255 4
0.197059 0.002625 -0.050860 0.293171 -0.138089 -0.946035 127 96 73 255 4
0.201778 0.005343 -0.049660 0.299945 -0.123382 -0.945944 125 95 73 255 4
0.206503 0.008063 -0.048461 0.251047 -0.102055 -0.962580 124 95 72 255 4
0.211235 0.010783 -0.047262 0.188917 -0.072408 -0.979320 123 95 73 255 4
0.215973 0.013506 -0.046063 0.122866 -0.056550 -0.990811 122 93 71 255 4
0.220717 0.016229 -0.044865 0.053805 -0.047654 -0.997414 116 91 70 255 4
0.224682 0.013972 -0.047842 0.011728 -0.057724 -0.998264 121 109 92 255 4
0.229228 0.015424 -0.047710 -0.011939 -0.057820 -0.998256 130 130 116 255 4
0.233792 0.016982 -0.047489 -0.002740 -0.059655 -0.998215 129 130 117 255 4
0.238410 0.018859 -0.047003 0.046499 -0.050825 -0.997625 132 132 120 255 4
0.242927 0.020100 -0.047049 0.117174 -0.048768 -0.991913 126 126 114 255 4
0.247622 0.022403 -0.046207 0.148393 -0.040960 -0.988080 113 113 102 255 4
0.252357 0.024920 -0.045188 0.172655 -0.019449 -0.984790 113 112 101 255 4
0.257098 0.027437 -0.044170 0.183485 -0.000852 -0.983022 115 114 103 255 4
0.261826 0.029850 -0.043241 0.196936 0.022338 -0.980162 113 112 101 255 4
0.266578 0.032370 -0.042224 0.205197 0.032931 -0.978167 118 117 105 255 4
0.271298 0.034678 -0.041384 0.221009 0.010607 -0.975214 113 111 100 255 4
0.276042 0.037094 -0.040456 0.231858 0.013413 -0.972657 106 105 94 255 4
0.280810 0.039617 -0.039440 0.230888 0.005343 -0.972966 107 109 96 255 4
0.290351 0.068660 -0.016352 0.589436 0.241925 -0.770738 111 110 99 255 3
0.296607 0.079079 -0.008781 0.665604 0.214438 -0.714834 109 93 77 255 3
0.308908 0.122330 0.026082 -0.802386 0.277252 0.528496 97 77 59 255 3
0.482900 0.224522 0.072043 -0.508749 -0.842053 0.179226 61 59 44 255 3
0.485642 0.217192 0.064923 -0.496103 -0.861336 0.109460 61 50 36 255 3
0.489246 0.213528 0.060802 -0.489598 -0.869585 0.064147 64 50 35 255 3
0.492835 0.209860 0.056682 -0.448785 -0.892643 -0.042208 65 48 34 255 3
0.496833 0.207917 0.053972 -0.430380 -0.891738 -0.139913 74 53 36 255 3
0.500847 0.206080 0.051352 -0.356612 -0.888617 -0.288422 89 62 42 255 3
0.504906 0.204458 0.048909 -0.345924 -0.861960 -0.370624 97 67 47 255 3
0.509228 0.203915 0.047347 -0.282233 -0.825618 -0.488570 101 70 50 255 3
0.513544 0.203371 0.045785 -0.238556 -0.782119 -0.575657 103 72 52 255 3
0.517938 0.203151 0.044488 -0.142343 -0.714980 -0.684502 105 75 55 255 3
0.522550 0.203796 0.043896 -0.086231 -0.641480 -0.762278 105 76 56 255 3
0.527160 0.204441 0.043303 -0.031571 -0.580741 -0.813476 107 79 57 255 3
0.531769 0.205086 0.042711 0.004842 -0.506977 -0.861946 110 82 60 255 3
0.536604 0.206598 0.042823 0.044748 -0.429247 -0.902078 112 85 62 255 3
0.541411 0.208001 0.042847 0.068315 -0.365844 -0.928166 114 86 63 255 3
0.546192 0.209296 0.042782 0.081555 -0.316379 -0.945121 117 88 64 255 3
0.551060 0.210918 0.042982 0.092203 -0.262994 -0.960382 117 86 62 255 3
0.555872 0.212322 0.043005 0.101390 -0.219168 -0.970405 119 87 62 255 3
0.560715 0.213835 0.043116 0.108262 -0.169761 -0.979521 120 87 63 255 3
0.565619 0.215566 0.043403 0.104121 -0.143134 -0.984211 122 88 64 255 3
0.570673 0.217841 0.044130 0.124095 -0.104426 -0.986760 125 90 65 255 3
0.575762 0.220225 0.044943 0.114414 -0.089059 -0.989433 128 91 66 255 3
0.581005 0.223155 0.046196 0.120617 -0.059324 -0.990925 129 93 68 255 3
0.648135 0.449392 0.227856 0.139779 0.498030 -0.855820 101 87 65 255 3
-0.529130 -0.170218 -0.013969 -0.545886 -0.141535 -0.825818 110 84 64 255 2
-0.524509 -0.170697 -0.015554 -0.512384 -0.162618 -0.843219 127 93 70 255 2
-0.520097 -0.169785 -0.015862 -0.455384 -0.134542 -0.880070 126 97 79 255 2
-0.515498 -0.170167 -0.017356 -0.367905 -0.138118 -0.919549 123 98 81 255 2
-0.510932 -0.170350 -0.018666 -0.258649 -0.150243 -0.954216 127 102 82 255 2
-0.506650 -0.168543 -0.018155 -0.215128 -0.155664 -0.964100 131 96 76 255 2
-0.507585 -0.129103 0.016789 -0.249767 -0.413615 -0.875522 87 59 42 255 2
-0.503035 -0.128675 0.016020 -0.693164 -0.403027 -0.597573 95 62 45 255 2
-0.498675 -0.126853 0.016527 -0.657751 -0.537782 -0.527403 109 68 50 255 2
-0.492007 -0.142373 0.001190 -0.626699 -0.383835 -0.678173 115 82 60 255 2
-0.487346 -0.143048 -0.000578 0.240241 -0.715684 -0.655806 123 96 76 255 2
-0.482885 -0.142229 -0.000980 0.215509 -0.664335 -0.715691 137 97 79 255 2
-0.478538 -0.140512 -0.000563 0.013234 -0.677881 -0.735052 134 93 76 255 2
-0.474301 -0.137895 0.000672 0.110078 -0.627852 -0.770510 135 94 75 255 2
-0.470106 -0.134878 0.002272 0.144272 -0.624731 -0.767396 139 98 78 255 2
-0.474991 -0.057030 0.072010 -0.234310 -0.964212 -0.124077 103 79 61 255 1
-0.470163 -0.057978 0.069960 -0.210880 -0.970481 -0.117033 68 49 35 255 1
-0.465366 -0.058728 0.068092 -0.184994 -0.974160 -0.129577 69 48 35 255 1
-0.460599 -0.059279 0.066407 -0.141015 -0.982328 -0.123071 75 54 38 255 1
-0.455883 -0.059432 0.065086 -0.089977 -0.986617 -0.135978 75 53 37 255 1
-0.451171 -0.059585 0.063765 -0.042318 -0.985834 -0.162298 76 55 38 255 1
-0.446441 -0.059939 0.062263 0.009903 -0.980794 -0.194796 76 56 39 255 1
-0.441726 -0.060194 0.060851 0.051267 -0.971568 -0.231145 78 58 40 255 1
-0.437091 -0.059748 0.060077 0.086559 -0.964054 -0.251211 79 60 40 255 1
-0.432531 -0.058601 0.059938 0.131387 -0.954182 -0.268840 80 59 40 255 1
-0.427980 -0.057353 0.059890 0.185995 -0.948027 -0.258169 81 59 40 255 1
-0.423377 -0.056607 0.059388 -0.238565 0.942131 0.235535 81 58 38 255 1
-0.418815 -0.055460 0.059249 -0.282110 0.925659 0.252128 82 59 38 255 1
-0.414321 -0.053610 0.059746 -0.329049 0.916300 0.228302 82 60 39 255 1
-0.409822 -0.051758 0.060243 -0.368584 0.904924 0.212738 83 60 39 255 1
-0.405339 -0.049706 0.060920 -0.399592 0.893164 0.206359 83 59 39 255 1
-0.400834 -0.047853 0.061417 -0.404892 0.888855 0.214475 83 59 39 255 1
-0.396335 -0.045899 0.062003 -0.402052 0.890136 0.214503 83 58 38 255 1
-0.391831 -0.043945 0.062589 -0.397728 0.893252 0.209555 83 58 37 255 1
-0.387315 -0.042090 0.063085 -0.399031 0.895494 0.197141 81 56 36 255 1
-0.382788 -0.040335 0.063489 -0.409796 0.894391 0.179256 80 55 35 255 1
-0.378274 -0.038379 0.064075 -0.424351 0.890725 0.162897 78 53 34 255 1
-0.373772 -0.036220 0.064841 -0.448371 0.884705 0.127515 77 51 32 255 1
-0.369290 -0.033757 0.065880 -0.480752 0.871550 0.096319 76 50 31 255 1
-0.364801 -0.031294 0.066918 -0.516258 0.853907 0.065728 73 48 29 255 1
-0.360315 -0.028728 0.068046 -0.549564 0.833854 0.051633 72 47 29 255 1
-0.355845 -0.025859 0.069446 -0.589418 0.807032 0.035850 71 47 28 255 1
-0.351424 -0.022180 0.071570 -0.630141 0.776318 0.015916 72 48 29 255 1
-0.346986 -0.018601 0.073603 -0.670568 0.741828 -0.005515 71 48 30 255 1
-0.342579 -0.014413 0.076179 -0.682263 0.730962 -0.014557 72 48 31 255 1
-0.338206 -0.009515 0.079388 -0.668928 0.743326 -0.001579 71 47 29 255 1
-0.333774 -0.005322 0.081962 -0.645126 0.764004 -0.010504 71 48 30 255 1
-0.329305 -0.001532 0.084173 -0.607143 0.794167 -0.026019 70 47 30 255 1
-0.324820 0.002160 0.086293 -0.574237 0.818459 -0.019417 72 50 32 255 1
-0.320249 0.004538 0.087235 -0.537044 0.843553 0.001628 71 50 33 255 1
-0.315690 0.007221 0.088448 -0.496635 0.867939 0.006013 69 50 33 255 1
-0.311114 0.009703 0.089480 -0.430165 0.902723 -0.006957 70 51 34 255 1
-0.306532 0.012186 0.090512 -0.362469 0.931394 -0.033500 72 53 36 255 1
-0.301900 0.013757 0.090728 -0.286282 0.957298 -0.040285 74 55 38 255 1
-0.297255 0.015127 0.090764 -0.162654 0.986316 -0.026910 76 58 40 255 1
-0.292585 0.015989 0.090347 -0.007556 -0.999920 -0.010152 78 59 41 255 1
-0.287858 0.015532 0.088755 -0.091595 -0.993789 -0.063196 80 61 42 255 1
-0.283139 0.015176 0.087253 -0.198043 -0.977685 -0.070082 83 64 45 255 1
-0.278410 0.014412 0.085390 -0.355191 -0.932609 -0.063873 86 66 47 255 1
-0.273619 0.011919 0.081991 -0.451194 -0.890334 -0.061063 91 69 49 255 1
-0.268827 0.009018 0.078231 -0.533989 -0.838816 -0.106037 97 73 52 255 1
-0.264006 0.004893 0.073388 -0.649393 -0.754688 -0.093459 99 75 53 255 4
-0.259153 -0.000761 0.067190 -0.725173 -0.672114 -0.149620 104 79 56 255 4
-0.254120 -0.012932 0.055212 -0.888049 -0.395750 -0.233991 112 86 61 255 4
-0.248365 -0.051274 0.020021 -0.712196 -0.024055 -0.701568 122 99 73 255 2
-0.243687 -0.055838 0.014827 -0.676282 -0.080311 -0.732252 124 102 76 255 2
-0.239061 -0.059183 0.010719 -0.615639 -0.136372 -0.776139 128 105 78 255 2
-0.234475 -0.061513 0.007514 -0.575414 -0.165737 -0.800893 128 105 78 255 2
-0.229904 -0.063743 0.004400 -0.512808 -0.221101 -0.829543 130 107 79 255 2
-0.225366 -0.064854 0.002280 -0.459756 -0.261714 -0.848605 129 106 78 255 2
-0.220840 -0.065762 0.000342 -0.418187 -0.286508 -0.861993 130 107 79 255 4
-0.216322 -0.066570 -0.001506 -0.371265 -0.333060 -0.866737 130 108 79 255 4
-0.211811 -0.067379 -0.003354 -0.331631 -0.374601 -0.865849 129 107 79 255 4
-0.207311 -0.067780 -0.004840 -0.293701 -0.413657 -0.861758 129 107 79 255 4
-0.202819 -0.067876 -0.006056 -0.263026 -0.452836 -0.851914 128 106 78 255 4
-0.198330 -0.068075 -0.007361 -0.245360 -0.479500 -0.842543 126 104 77 255 4
-0.193848 -0.067969 -0.008396 -0.230622 -0.494615 -0.837955 126 102 76 255 4
-0.189368 -0.067965 -0.009520 -0.216479 -0.521811 -0.825136 127 102 76 255 4
-0.184891 -0.067961 -0.010644 -0.201240 -0.551989 -0.809203 128 101 75 255 4
-0.180418 -0.067959 -0.011768 -0.184764 -0.582772 -0.791353 128 100 74 255 4
-0.175948 -0.068059 -0.012982 -0.171630 -0.611630 -0.772303 128 100 74 255 4
-0.171481 -0.068058 -0.014105 -0.163199 -0.638992 -0.751702 127 100 74 255 4
-0.167018 -0.067955 -0.015139 -0.155509 -0.663556 -0.731786 125 99 74 255 4
-0.162558 -0.067853 -0.016171 -0.155014 -0.696956 -0.700159 124 99 74 255 4
-0.158099 -0.067649 -0.017114 -0.170223 -0.706369 -0.687071 123 99 73 255 4
-0.153645 -0.067548 -0.018147 -0.176926 -0.728991 -0.661263 121 97 72 255 4
-0.149194 -0.067550 -0.019269 -0.183665 -0.748728 -0.636925 121 97 73 255 4
-0.144749 -0.067758 -0.020571 -0.177129 -0.768516 -0.614824 119 96 72 255 4
-0.140307 -0.067865 -0.021783 -0.169741 -0.781579 -0.600269 117 95 70 255 4
-0.135867 -0.067869 -0.022905 -0.161393 -0.790284 -0.591103 114 93 69 255 4
-0.131427 -0.067668 -0.023846 -0.149143 -0.797772 -0.584223 113 92 69 255 4
-0.126996 -0.067777 -0.025057 -0.132757 -0.804417 -0.579041 112 91 68 255 4
-0.122570 -0.067989 -0.026358 -0.112687 -0.809374 -0.576382 110 89 67 255 4
-0.118148 -0.068202 -0.027659 -0.091731 -0.809142 -0.580410 110 89 66 255 4
-0.113713 -0.067695 -0.028329 -0.067747 -0.816312 -0.573625 110 88 66 255 4
-0.109281 -0.067292 -0.029090 -0.038474 -0.817431 -0.574740 109 87 65 255 4
-0.104852 -0.066889 -0.029850 -0.013321 -0.817283 -0.576083 110 88 66 255 4
-0.100424 -0.066486 -0.030611 -0.001077 -0.816506 -0.577336 109 87 65 255 4
-0.095995 -0.065981 -0.031281 0.007377 -0.813684 -0.581260 110 86 65 255 4
-0.091561 -0.065269 -0.031771 0.020688 -0.805638 -0.592047 110 86 65 255 4
-0.087131 -0.064661 -0.032351 0.030851 -0.793683 -0.607548 112 87 65 255 4
-0.082701 -0.064053 -0.032932 0.038996 -0.778358 -0.626608 112 87 65 255 4
-0.078269 -0.063342 -0.033422 0.045205 -0.762908 -0.644924 112 87 64 255 4
-0.073847 -0.062838 -0.034092 0.043383 -0.745703 -0.664865 113 87 65 255 4
-0.069421 -0.062231 -0.034671 0.027457 -0.727946 -0.685085 112 88 65 255 4
-0.064996 -0.061624 -0.035251 0.009035 -0.711949 -0.702173 112 88 65 255 4
-0.060558 -0.060707 -0.035562 -0.012584 -0.697038 -0.716924 113 88 65 255 4
-0.056126 -0.059894 -0.035962 -0.032051 -0.690215 -0.722894 112 88 64 255 4
-0.051719 -0.059598 -0.036811 -0.040595 -0.679157 -0.732870 113 89 65 255 4
-0.047304 -0.059095 -0.037480 -0.032654 -0.671416 -0.740361 115 90 66 255 4
-0.042896 -0.058696 -0.038239 -0.017787 -0.662423 -0.748919 117 91 67 255 4
-0.038490 -0.058298 -0.038998 0.012688 -0.652315 -0.757842 118 92 67 255 4
-0.034056 -0.057382 -0.039308 0.050499 -0.639728 -0.766940 118 93 68 255 4
-0.029616 -0.056362 -0.039528 0.090393 -0.624271 -0.775961 119 94 69 255 4
-0.025175 -0.055342 -0.039748 0.139228 -0.610692 -0.779532 118 94 69 255 4
-0.020734 -0.054322 -0.039969 0.176747 -0.595114 -0.783964 117 93 68 255 4
-0.016279 -0.053095 -0.040010 0.198033 -0.583324 -0.787728 117 93 68 255 4
-0.011810 -0.051659 -0.039872 0.223547 -0.559071 -0.798415 118 93 68 255 4
-0.007331 -0.050120 -0.039644 0.247733 -0.529521 -0.811317 119 93 68 255 4
-0.002851 -0.048579 -0.039417 0.269517 -0.505237 -0.819815 120 94 69 255 4
0.001632 -0.047039 -0.039190 0.282719 -0.486526 -0.826658 119 94 69 255 4
0.006148 -0.045082 -0.038604 0.305113 -0.466821 -0.830051 120 95 70 255 4
0.010675 -0.043020 -0.037929 0.287407 -0.463540 -0.838169 121 96 71 255 4
0.015207 -0.040957 -0.037255 0.261739 -0.464778 -0.845857 122 97 71 255 4
0.019767 -0.038581 -0.036312 0.225756 -0.469414 -0.853630 123 98 72 255 4
0.024273 -0.036933 -0.035996 0.171801 -0.480018 -0.860272 124 98 72 255 4
0.028731 -0.035909 -0.036218 0.116839 -0.489082 -0.864377 124 99 73 255 4
0.033207 -0.034678 -0.036261 0.080614 -0.491065 -0.867385 124 99 73 255 4
0.037684 -0.033445 -0.036303 0.045894 -0.489412 -0.870844 125 100 74 255 4
0.042152 -0.032317 -0.036436 0.014629 -0.491345 -0.870842 124 99 74 255 4
0.046585 -0.031606 -0.036926 -0.012085 -0.487820 -0.872861 124 100 75 255 4
0.050998 -0.031104 -0.037595 -0.042118 -0.473279 -0.879905 125 100 75 255 4
0.055409 -0.030602 -0.038264 -0.064929 -0.462489 -0.884245 125 101 76 255 4
0.059818 -0.030101 -0.038933 -0.078111 -0.450380 -0.889414 125 100 75 255 4
0.064227 -0.029600 -0.039601 -0.086017 -0.442551 -0.892608 126 101 76 255 4
0.068623 -0.029204 -0.040360 -0.092853 -0.437419 -0.894451 126 101 76 255 4
0.073007 -0.028912 -0.041207 -0.100755 -0.432795 -0.895844 126 102 77 255 4
0.077410 -0.028412 -0.041875 -0.110437 -0.427452 -0.897267 125 101 76 255 4
0.081823 -0.027808 -0.042454 -0.118745 -0.420897 -0.899303 126 101 76 255 4
0.086212 -0.027413 -0.043212 -0.126193 -0.411698 -0.902541 127 102 77 255 4
0.090600 -0.027018 -0.043969 -0.132055 -0.399433 -0.907201 126 100 76 255 4
0.094974 -0.026729 -0.044816 -0.134739 -0.385474 -0.912828 126 100 77 255 4
0.099358 -0.026335 -0.045573 -0.135050 -0.370140 -0.919107 126 100 77 255 4
0.103739 -0.025942 -0.046330 -0.130261 -0.355667 -0.925491 127 101 77 255 4
0.108119 -0.025549 -0.047087 -0.125774 -0.341871 -0.931292 126 101 77 255 4
0.112497 -0.025157 -0.047844 -0.121947 -0.332412 -0.935217 127 102 78 255 4
0.116873 -0.024765 -0.048601 -0.117775 -0.321521 -0.939549 126 102 77 255 4
0.121260 -0.024268 -0.049268 -0.113107 -0.313570 -0.942805 127 102 77 255 4
0.125646 -0.023772 -0.049935 -0.103181 -0.307586 -0.945909 128 103 78 255 4
0.130029 -0.023276 -0.050602 -0.088856 -0.303290 -0.948746 128 102 77 255 4
0.134425 -0.022675 -0.051180 -0.071734 -0.299157 -0.951504 129 102 77 255 4
0.138832 -0.021969 -0.051668 -0.053912 -0.295260 -0.953895 129 101 76 255 4
