ply
format ascii 1.0
comment Created by labeled_geometry.py
element vertex 653
property float x
property float y
property float z
property float nx
property float ny
property float nz
property uchar red
property uchar green
property uchar blue
property uchar alpha
property uchar label
end_header
0.018509 0.028535 0.548382 0.430143 -0.619535 -0.656622 127 101 72 255 4
0.019312 0.028582 0.549299 0.428133 -0.616267 -0.660997 126 99 71 255 4
0.020123 0.028637 0.550338 0.416506 -0.618507 -0.666312 127 99 71 255 4
0.020944 0.028701 0.551581 0.394609 -0.634069 -0.665011 128 98 70 255 4
0.021789 0.028792 0.553333 0.370609 -0.639393 -0.673666 127 95 66 255 4
0.022619 0.028859 0.554616 0.343336 -0.651021 -0.676973 123 90 63 255 4
0.023441 0.028911 0.555614 0.319398 -0.654225 -0.685547 123 90 63 255 4
0.024255 0.028949 0.556348 0.302418 -0.645153 -0.701656 125 93 64 255 4
0.025071 0.028988 0.557102 0.266027 -0.636576 -0.723879 125 93 65 255 3
0.025877 0.029014 0.557590 0.236513 -0.621145 -0.747155 127 95 67 255 2
0.026681 0.029035 0.557998 0.213801 -0.599263 -0.771475 127 97 68 255 2
0.027482 0.029052 0.558324 0.188323 -0.581831 -0.791206 126 95 66 255 2
0.028262 0.029047 0.558222 0.172533 -0.565595 -0.806433 125 94 66 255 2
0.029043 0.029043 0.558140 0.157897 -0.554544 -0.817037 124 93 65 255 2
0.029822 0.029037 0.558039 0.147080 -0.541798 -0.827540 124 91 64 255 2
0.030602 0.029033 0.557957 0.140592 -0.537615 -0.831387 123 91 63 255 2
0.031381 0.029028 0.557855 0.140660 -0.532298 -0.834790 121 88 62 255 2
0.032158 0.029020 0.557713 0.138280 -0.535340 -0.833241 120 87 60 255 2
0.032934 0.029013 0.557570 0.136775 -0.538791 -0.831262 120 87 60 255 2
0.033703 0.029000 0.557326 0.135794 -0.539533 -0.830942 118 86 59 255 2
0.034470 0.028986 0.557061 0.135826 -0.540938 -0.830023 119 86 59 255 2
0.035239 0.028975 0.556837 0.134412 -0.542622 -0.829153 119 85 58 255 2
0.036007 0.028962 0.556592 0.131545 -0.547938 -0.826111 118 85 58 255 2
0.036773 0.028949 0.556348 0.129950 -0.550736 -0.824501 119 87 59 255 2
0.037545 0.028941 0.556185 0.127952 -0.555350 -0.821714 117 87 59 255 2
0.038320 0.028935 0.556083 0.123526 -0.559270 -0.819731 117 86 59 255 2
0.039091 0.028927 0.555920 0.122871 -0.560343 -0.819096 116 84 58 255 2
0.039859 0.028917 0.555737 0.119473 -0.564684 -0.816614 117 84 58 255 2
0.040632 0.028911 0.555614 0.117911 -0.566504 -0.815580 117 83 58 255 2
0.041404 0.028905 0.555492 0.113744 -0.569853 -0.813836 116 84 59 255 2
0.042174 0.028897 0.555350 0.112440 -0.571239 -0.813045 114 85 59 255 2
0.042946 0.028891 0.555227 0.108234 -0.574710 -0.811168 113 85 60 255 2
0.043717 0.028885 0.555105 0.106116 -0.576295 -0.810323 109 83 57 255 2
0.044486 0.028877 0.554963 0.101113 -0.579489 -0.808683 108 82 56 255 2
0.045249 0.028866 0.554738 0.098472 -0.583493 -0.806126 108 82 56 255 2
0.046009 0.028853 0.554494 0.096327 -0.585414 -0.804992 105 79 53 255 2
0.046773 0.028843 0.554311 0.092898 -0.588975 -0.802794 102 77 52 255 2
0.047549 0.028841 0.554270 0.088685 -0.591733 -0.801241 100 75 51 255 2
0.048319 0.028836 0.554168 0.084696 -0.592700 -0.800958 95 70 48 255 2
0.049101 0.028837 0.554188 0.077965 -0.596976 -0.798462 93 69 48 255 2
0.049895 0.028845 0.554351 0.072704 -0.597439 -0.798612 89 68 47 255 2
0.050726 0.028875 0.554922 0.065536 -0.598041 -0.798782 88 69 48 255 2
0.051588 0.028921 0.555798 0.056495 -0.596906 -0.800320 88 73 52 255 2
-0.051325 0.031973 0.598293 0.131843 -0.569405 -0.811415 72 67 50 255 2
-0.047015 0.029776 0.557183 -0.074315 -0.592317 -0.802271 79 67 48 255 2
-0.046211 0.029763 0.556939 -0.078929 -0.591519 -0.802418 85 67 46 255 2
-0.045405 0.029748 0.556653 -0.088265 -0.587121 -0.804673 86 66 44 255 2
-0.044629 0.029752 0.556735 -0.092332 -0.585420 -0.805455 87 64 43 255 2
-0.043850 0.029756 0.556796 -0.095530 -0.584246 -0.805935 91 66 44 255 2
-0.043052 0.029745 0.556592 -0.102037 -0.579957 -0.808231 93 67 44 255 2
-0.042267 0.029744 0.556572 -0.109237 -0.576184 -0.809987 97 69 46 255 2
-0.041489 0.029747 0.556633 -0.112074 -0.573797 -0.811293 99 71 47 255 2
-0.040711 0.029750 0.556694 -0.115866 -0.571935 -0.812074 101 73 49 255 2
-0.039935 0.029756 0.556796 -0.120350 -0.567526 -0.814512 103 75 52 255 2
-0.039158 0.029760 0.556877 -0.123645 -0.565213 -0.815626 103 78 54 255 2
-0.038379 0.029763 0.556939 -0.128269 -0.562611 -0.816710 103 79 56 255 2
-0.037597 0.029764 0.556959 -0.131812 -0.559080 -0.818569 104 81 58 255 2
-0.036815 0.029765 0.556979 -0.136729 -0.554569 -0.820828 106 84 60 255 2
-0.036033 0.029767 0.557000 -0.142071 -0.550732 -0.822502 109 85 60 255 2
-0.035260 0.029775 0.557163 -0.145222 -0.547106 -0.824370 110 84 59 255 2
-0.034489 0.029786 0.557366 -0.148662 -0.544023 -0.825795 111 84 59 255 2
-0.033718 0.029797 0.557570 -0.153083 -0.539390 -0.828024 113 84 59 255 2
-0.032946 0.029808 0.557774 -0.155673 -0.536204 -0.829609 113 83 59 255 2
-0.032174 0.029820 0.557998 -0.161705 -0.528067 -0.833664 112 83 59 255 2
-0.031397 0.029827 0.558140 -0.166864 -0.521619 -0.836702 112 83 59 255 2
-0.030619 0.029834 0.558263 -0.169766 -0.517532 -0.838654 115 86 60 255 2
-0.029839 0.029839 0.558365 -0.172049 -0.517504 -0.838206 115 86 61 255 2
-0.029056 0.029842 0.558405 -0.175228 -0.514381 -0.839469 114 86 61 255 2
-0.028273 0.029844 0.558446 -0.171035 -0.525128 -0.833659 112 85 60 255 2
-0.027491 0.029847 0.558507 -0.165757 -0.549337 -0.818996 112 85 60 255 2
-0.026707 0.029849 0.558548 -0.129908 -0.640789 -0.756646 110 84 58 255 2
-0.025924 0.029851 0.558589 -0.115695 -0.702594 -0.702123 109 83 57 255 2
-0.025121 0.029831 0.558202 -0.129281 -0.732650 -0.668214 109 82 56 255 2
-0.024313 0.029804 0.557692 -0.153163 -0.744402 -0.649929 109 82 56 255 2
-0.023508 0.029777 0.557203 -0.178908 -0.755965 -0.629689 110 82 57 255 2
-0.022696 0.029739 0.556490 -0.211375 -0.757713 -0.617408 113 84 59 255 2
-0.021884 0.029700 0.555757 -0.241848 -0.757511 -0.606371 113 85 58 255 4
-0.021076 0.029662 0.555044 -0.266385 -0.746337 -0.609934 114 85 58 255 4
-0.020253 0.029601 0.553903 -0.308924 -0.705218 -0.638149 116 86 59 255 4
-0.019421 0.029519 0.552375 -0.357924 -0.656879 -0.663627 118 88 61 255 4
-0.018593 0.029439 0.550868 -0.396702 -0.622499 -0.674628 119 89 62 255 4
-0.017780 0.029376 0.549686 -0.419570 -0.613006 -0.669466 118 91 64 255 4
-0.016978 0.029326 0.548749 -0.435511 -0.601777 -0.669473 118 91 64 255 4
-0.016178 0.029274 0.547792 -0.443811 -0.602850 -0.663026 121 94 67 255 4
-0.015382 0.029227 0.546895 -0.448963 -0.601084 -0.661158 121 96 69 255 4
-0.014595 0.029191 0.546223 -0.442564 -0.606918 -0.660142 121 97 71 255 4
-0.013804 0.029142 0.545306 -0.428135 -0.613402 -0.663655 124 100 75 255 4
-0.013014 0.029090 0.544349 -0.410045 -0.616657 -0.672010 124 102 77 255 4
-0.012236 0.029061 0.543799 -0.391318 -0.617883 -0.681976 124 103 78 255 4
-0.011461 0.029035 0.543310 -0.366765 -0.625031 -0.689072 125 104 79 255 4
-0.010690 0.029015 0.542943 -0.345590 -0.629005 -0.696362 125 104 79 255 4
-0.009922 0.029002 0.542699 -0.321695 -0.635943 -0.701491 125 105 80 255 4
-0.009156 0.028994 0.542536 -0.302361 -0.641174 -0.705318 125 106 81 255 4
-0.008390 0.028985 0.542373 -0.277208 -0.646623 -0.710658 125 106 81 255 4
-0.007625 0.028975 0.542190 -0.248242 -0.650662 -0.717645 126 106 81 255 4
-0.006860 0.028964 0.541986 -0.228191 -0.657197 -0.718346 126 106 81 255 4
-0.006096 0.028957 0.541843 -0.203565 -0.658106 -0.724884 127 106 80 255 4
-0.005333 0.028950 0.541721 -0.184670 -0.663169 -0.725331 129 106 80 255 4
-0.004570 0.028942 0.541578 -0.159119 -0.664788 -0.729889 131 106 80 255 4
-0.003807 0.028937 0.541477 -0.138809 -0.668425 -0.730712 131 107 80 255 4
-0.003046 0.028934 0.541415 -0.115433 -0.671124 -0.732303 133 109 81 255 4
-0.002284 0.028934 0.541415 -0.094374 -0.674055 -0.732628 133 109 82 255 4
-0.001523 0.028936 0.541456 -0.076800 -0.676286 -0.732625 133 109 82 255 4
-0.000762 0.028939 0.541517 -0.054792 -0.679608 -0.731526 133 110 83 255 4
0.000000 0.028941 0.541558 -0.037085 -0.681316 -0.731050 132 111 84 255 4
0.000762 0.028941 0.541558 -0.015828 -0.681819 -0.731350 131 110 84 255 4
0.001523 0.028941 0.541558 0.002783 -0.683449 -0.729993 134 113 87 255 4
0.002285 0.028941 0.541558 0.022704 -0.682675 -0.730370 134 113 87 255 4
0.003046 0.028939 0.541517 0.040454 -0.680606 -0.731532 132 111 85 255 4
0.003807 0.028935 0.541436 0.061630 -0.678301 -0.732195 134 111 85 255 4
0.004568 0.028930 0.541354 0.080241 -0.677458 -0.731172 133 108 82 255 4
0.005329 0.028929 0.541334 0.100088 -0.673997 -0.731923 133 107 80 255 4
0.006090 0.028929 0.541334 0.124645 -0.670657 -0.731220 133 107 80 255 4
0.006853 0.028935 0.541436 0.143075 -0.668378 -0.729932 134 107 81 255 4
0.007616 0.028941 0.541558 0.167580 -0.667911 -0.725129 134 108 81 255 4
0.008380 0.028948 0.541680 0.187701 -0.665027 -0.722847 133 107 80 255 4
0.009143 0.028954 0.541802 0.209036 -0.661137 -0.720556 133 107 81 255 4
0.009908 0.028962 0.541945 0.233965 -0.659084 -0.714751 132 107 81 255 4
0.010674 0.028972 0.542128 0.255721 -0.652357 -0.713468 131 107 81 255 4
0.011440 0.028982 0.542312 0.280873 -0.651863 -0.704404 130 106 79 255 4
0.012208 0.028994 0.542536 0.305010 -0.646485 -0.699304 129 105 79 255 4
0.012977 0.029007 0.542780 0.324434 -0.643581 -0.693215 129 106 79 255 4
0.013747 0.029022 0.543066 0.348891 -0.637703 -0.686739 128 104 77 255 4
0.014517 0.029035 0.543310 0.369974 -0.631941 -0.681007 130 105 77 255 4
0.015299 0.029069 0.543941 0.393849 -0.629954 -0.669358 131 105 77 255 4
0.016091 0.029117 0.544838 0.418333 -0.624625 -0.659424 131 105 76 255 4
0.016890 0.029173 0.545897 0.430079 -0.623122 -0.653262 132 104 75 255 4
0.017684 0.029218 0.546732 0.435405 -0.622241 -0.650567 130 102 74 255 4
0.018488 0.029272 0.547751 0.434890 -0.617505 -0.655407 128 101 72 255 4
0.019295 0.029329 0.548810 0.429464 -0.614608 -0.661678 127 100 71 255 4
0.020109 0.029390 0.549951 0.419177 -0.616951 -0.666080 127 99 70 255 4
0.020930 0.029457 0.551214 0.402180 -0.622743 -0.671150 129 98 70 255 4
0.021782 0.029561 0.553149 0.373273 -0.639403 -0.672184 126 94 66 255 4
0.022623 0.029643 0.554698 0.342260 -0.652866 -0.675740 123 90 62 255 4
0.023439 0.029689 0.555553 0.321187 -0.653962 -0.684962 122 89 60 255 4
0.024253 0.029729 0.556307 0.297305 -0.654584 -0.695075 125 92 63 255 4
0.025069 0.029770 0.557061 0.268033 -0.645308 -0.715357 123 92 64 255 4
0.025880 0.029801 0.557652 0.238876 -0.630379 -0.738620 124 93 65 255 2
0.026688 0.029827 0.558140 0.210887 -0.614423 -0.760270 123 93 65 255 2
0.027490 0.029846 0.558487 0.186009 -0.595652 -0.781409 122 91 64 255 2
0.028272 0.029843 0.558426 0.173700 -0.573876 -0.800309 119 89 62 255 2
0.029053 0.029838 0.558344 0.158325 -0.567040 -0.808331 117 86 60 255 2
0.029833 0.029833 0.558242 0.145693 -0.554266 -0.819490 115 84 59 255 2
0.030614 0.029829 0.558161 0.139391 -0.549569 -0.823738 114 84 58 255 2
0.031393 0.029823 0.558059 0.138333 -0.546239 -0.826128 113 83 57 255 2
0.032168 0.029814 0.557896 0.137844 -0.545785 -0.826509 114 83 56 255 2
0.032944 0.029807 0.557753 0.137635 -0.545165 -0.826954 113 83 56 255 2
0.033715 0.029795 0.557529 0.134854 -0.550709 -0.823732 112 81 55 255 2
0.034483 0.029781 0.557265 0.134055 -0.550908 -0.823729 112 80 54 255 2
0.035251 0.029768 0.557020 0.134541 -0.551563 -0.823211 113 81 54 255 2
0.036020 0.029756 0.556796 0.131610 -0.554821 -0.821494 112 81 54 255 2
0.036788 0.029744 0.556572 0.129136 -0.556182 -0.820966 112 81 55 255 2
0.037557 0.029733 0.556368 0.125671 -0.562233 -0.817374 112 81 55 255 2
0.038331 0.029726 0.556246 0.123005 -0.563919 -0.816618 111 79 53 255 2
0.039106 0.029721 0.556144 0.122495 -0.565232 -0.815786 111 77 52 255 2
0.039883 0.029716 0.556063 0.120818 -0.565006 -0.816193 112 77 51 255 2
0.040657 0.029711 0.555961 0.116834 -0.569414 -0.813706 111 76 51 255 2
0.041430 0.029704 0.555838 0.113310 -0.571599 -0.812672 110 77 52 255 2
0.042204 0.029699 0.555737 0.110443 -0.574579 -0.810963 107 76 52 255 2
0.042976 0.029692 0.555614 0.108371 -0.574911 -0.811007 103 75 51 255 2
0.043748 0.029686 0.555492 0.103337 -0.581531 -0.806935 100 74 50 255 2
0.044522 0.029682 0.555411 0.100087 -0.583077 -0.806228 99 73 50 255 2
0.045290 0.029673 0.555248 0.096796 -0.586368 -0.804241 98 73 49 255 2
0.046064 0.029669 0.555166 0.094165 -0.587516 -0.803715 96 71 48 255 2
0.046833 0.029661 0.555024 0.091411 -0.589501 -0.802578 95 71 48 255 2
0.047601 0.029653 0.554881 0.086810 -0.592684 -0.800743 93 71 48 255 2
0.048399 0.029664 0.555085 0.079611 -0.596265 -0.798830 92 70 48 255 2
0.049211 0.029683 0.555431 0.073479 -0.596276 -0.799410 90 70 49 255 2
0.050007 0.029691 0.555594 0.068631 -0.597199 -0.799151 87 71 52 255 2
0.054693 0.031974 0.598313 -0.180762 -0.597303 -0.781379 77 73 55 255 2
-0.045553 0.030630 0.558466 -0.076279 -0.591089 -0.802991 76 67 49 255 2
-0.044733 0.030607 0.558039 -0.084864 -0.587945 -0.804437 84 66 46 255 2
-0.043931 0.030595 0.557815 -0.093620 -0.584690 -0.805837 88 65 45 255 2
-0.043135 0.030587 0.557672 -0.098375 -0.581877 -0.807305 90 65 44 255 2
-0.042335 0.030576 0.557468 -0.105475 -0.577296 -0.809694 90 63 43 255 2
-0.041536 0.030564 0.557265 -0.110341 -0.574128 -0.811296 91 65 43 255 2
-0.040757 0.030568 0.557326 -0.116233 -0.571199 -0.812540 93 68 45 255 2
-0.039978 0.030571 0.557387 -0.118790 -0.567855 -0.814512 94 69 47 255 2
-0.039198 0.030574 0.557448 -0.124311 -0.564471 -0.816039 95 71 49 255 2
-0.038417 0.030577 0.557489 -0.127119 -0.562335 -0.817080 95 73 51 255 2
-0.037636 0.030579 0.557529 -0.132384 -0.558094 -0.819149 95 74 52 255 2
-0.036854 0.030581 0.557570 -0.136490 -0.554029 -0.821232 97 75 52 255 2
-0.036073 0.030583 0.557611 -0.141757 -0.550471 -0.822731 100 77 53 255 2
-0.035298 0.030591 0.557753 -0.145314 -0.545650 -0.825318 102 77 53 255 2
-0.034522 0.030599 0.557896 -0.150291 -0.541958 -0.826858 104 78 53 255 2
-0.033747 0.030608 0.558059 -0.152687 -0.538801 -0.828481 105 79 54 255 2
-0.032973 0.030618 0.558242 -0.157067 -0.533050 -0.831377 105 78 54 255 2
-0.032199 0.030628 0.558426 -0.163078 -0.525258 -0.835170 105 78 54 255 2
-0.031416 0.030630 0.558466 -0.166335 -0.522638 -0.836171 105 79 54 255 2
-0.030631 0.030631 0.558487 -0.172870 -0.514122 -0.840116 107 80 55 255 2
-0.029850 0.030636 0.558568 -0.173603 -0.514368 -0.839814 108 81 56 255 2
-0.029067 0.030638 0.558609 -0.178667 -0.510942 -0.840842 108 82 57 255 2
-0.028283 0.030640 0.558650 -0.173737 -0.523984 -0.833820 107 81 56 255 2
-0.027500 0.030643 0.558691 -0.164892 -0.552734 -0.816882 106 80 56 255 2
-0.026716 0.030645 0.558731 -0.145686 -0.616090 -0.774086 105 79 54 255 2
-0.025928 0.030643 0.558691 -0.120043 -0.699048 -0.704926 105 79 54 255 2
-0.025127 0.030624 0.558344 -0.133110 -0.728325 -0.672179 104 78 53 255 2
-0.024321 0.030598 0.557876 -0.155879 -0.742951 -0.650942 105 79 54 255 2
-0.023509 0.030562 0.557224 -0.183266 -0.750291 -0.635198 107 80 55 255 2
-0.022694 0.030520 0.556450 -0.217264 -0.748492 -0.626543 110 82 56 255 4
-0.021883 0.030479 0.555716 -0.250003 -0.743760 -0.619935 111 82 56 255 4
-0.021073 0.030439 0.554983 -0.281397 -0.721346 -0.632831 112 83 56 255 4
-0.020257 0.030386 0.554005 -0.319388 -0.686663 -0.653058 115 85 57 255 4
-0.019418 0.030293 0.552314 -0.369058 -0.641364 -0.672643 117 88 60 255 4
-0.018583 0.030197 0.550562 -0.410916 -0.608403 -0.678965 118 89 62 255 4
-0.017769 0.030131 0.549360 -0.434420 -0.594182 -0.676924 117 89 62 255 4
-0.016963 0.030070 0.548260 -0.451691 -0.587144 -0.671742 117 90 63 255 4
-0.016162 0.030015 0.547242 -0.459627 -0.588216 -0.665391 119 92 66 255 4
-0.015363 0.029959 0.546223 -0.458736 -0.591419 -0.663163 120 94 68 255 4
-0.014572 0.029912 0.545368 -0.451922 -0.591950 -0.667354 121 96 70 255 4
-0.013781 0.029859 0.544410 -0.434872 -0.597371 -0.673821 121 98 73 255 4
-0.012995 0.029811 0.543534 -0.411271 -0.602137 -0.684315 121 99 74 255 4
-0.012215 0.029773 0.542841 -0.388035 -0.605708 -0.694656 121 99 75 255 4
-0.011446 0.029760 0.542597 -0.368077 -0.611177 -0.700702 122 100 76 255 4
-0.010677 0.029744 0.542312 -0.350001 -0.616326 -0.705437 124 102 77 255 4
-0.009910 0.029729 0.542027 -0.329163 -0.619881 -0.712320 124 102 78 255 4
-0.009143 0.029716 0.541802 -0.302508 -0.625488 -0.719204 125 104 80 255 4
-0.008378 0.029704 0.541578 -0.273545 -0.628608 -0.728028 126 105 81 255 4
-0.007614 0.029694 0.541395 -0.251833 -0.635340 -0.730016 125 105 80 255 4
-0.006850 0.029685 0.541232 -0.224867 -0.639674 -0.735019 126 106 81 255 4
-0.006088 0.029677 0.541089 -0.206822 -0.641942 -0.738333 129 108 82 255 4
-0.005325 0.029667 0.540906 -0.181143 -0.643594 -0.743622 131 108 82 255 4
-0.004563 0.029659 0.540764 -0.159795 -0.647847 -0.744822 132 108 82 255 4
-0.003802 0.029653 0.540641 -0.135103 -0.649171 -0.748548 133 109 82 255 4
-0.003041 0.029649 0.540580 -0.117452 -0.651845 -0.749202 134 110 83 255 4
-0.002281 0.029648 0.540560 -0.095800 -0.651804 -0.752312 134 110 83 255 4
-0.001521 0.029650 0.540601 -0.076200 -0.653950 -0.752690 133 109 82 255 4
-0.000760 0.029656 0.540702 -0.054601 -0.655863 -0.752903 133 110 83 255 4
0.000000 0.029664 0.540845 -0.034586 -0.659084 -0.751273 134 111 84 255 4
0.000761 0.029663 0.540825 -0.016561 -0.659901 -0.751170 133 111 85 255 4
0.001521 0.029663 0.540825 0.002390 -0.658602 -0.752487 134 112 87 255 4
0.002282 0.029663 0.540825 0.019705 -0.658724 -0.752127 134 112 87 255 4
0.003042 0.029659 0.540764 0.040447 -0.657337 -0.752511 132 110 85 255 4
0.003801 0.029650 0.540601 0.060924 -0.654860 -0.753290 133 109 84 255 4
0.004561 0.029645 0.540499 0.079852 -0.653448 -0.752748 133 107 82 255 4
0.005321 0.029645 0.540499 0.101952 -0.652652 -0.750767 133 107 81 255 4
0.006081 0.029646 0.540519 0.117141 -0.649833 -0.750996 134 108 81 255 4
0.006843 0.029652 0.540621 0.146136 -0.648654 -0.746922 134 107 81 255 4
0.007604 0.029657 0.540723 0.162838 -0.646383 -0.745434 134 109 81 255 4
0.008368 0.029668 0.540926 0.191134 -0.645691 -0.739290 133 108 81 255 4
0.009131 0.029677 0.541089 0.213117 -0.641200 -0.737186 132 108 81 255 4
0.009895 0.029684 0.541212 0.235746 -0.639657 -0.731616 131 107 81 255 4
0.010659 0.029694 0.541395 0.258104 -0.636757 -0.726582 130 107 80 255 4
0.011425 0.029704 0.541578 0.274408 -0.633438 -0.723503 128 105 79 255 4
0.012192 0.029717 0.541823 0.304515 -0.630481 -0.713978 128 104 78 255 4
0.012961 0.029733 0.542108 0.328609 -0.628339 -0.705128 128 104 78 255 4
0.013731 0.029750 0.542414 0.351084 -0.623676 -0.698404 128 104 77 255 4
0.014501 0.029765 0.542699 0.373106 -0.619481 -0.690678 127 103 76 255 4
0.015278 0.029792 0.543188 0.395875 -0.615324 -0.681659 129 103 75 255 4
0.016067 0.029839 0.544043 0.420441 -0.612028 -0.669814 130 103 75 255 4
0.016861 0.029891 0.544980 0.442235 -0.607472 -0.659853 131 103 75 255 4
0.017661 0.029948 0.546019 0.451497 -0.603618 -0.657111 131 102 74 255 4
0.018468 0.030010 0.547160 0.448518 -0.606430 -0.656563 129 101 73 255 4
0.019275 0.030069 0.548240 0.437656 -0.608273 -0.662164 127 100 72 255 4
0.020095 0.030143 0.549584 0.424981 -0.611396 -0.667522 126 98 70 255 4
0.020922 0.030220 0.550990 0.405430 -0.619014 -0.672643 128 97 69 255 4
0.021776 0.030331 0.553007 0.374600 -0.638089 -0.672694 125 93 65 255 4
0.022625 0.030427 0.554759 0.340497 -0.656254 -0.673344 119 87 60 255 4
0.023437 0.030468 0.555513 0.321793 -0.657167 -0.681602 120 88 60 255 4
0.024251 0.030510 0.556266 0.298964 -0.658279 -0.690861 120 88 60 255 4
0.025070 0.030554 0.557081 0.267554 -0.651266 -0.710118 119 88 60 255 4
0.025889 0.030596 0.557835 0.235654 -0.639172 -0.732070 121 90 62 255 2
0.026695 0.030620 0.558283 0.208951 -0.627026 -0.750451 119 89 62 255 2
0.027495 0.030637 0.558589 0.187937 -0.606717 -0.772382 115 86 59 255 2
0.028282 0.030639 0.558629 0.170882 -0.587041 -0.791316 112 84 58 255 2
0.029063 0.030634 0.558528 0.157671 -0.574988 -0.802825 110 81 55 255 2
0.029844 0.030629 0.558446 0.145818 -0.566712 -0.810910 108 79 53 255 2
0.030625 0.030625 0.558365 0.138076 -0.561012 -0.816211 107 78 53 255 2
0.031404 0.030619 0.558263 0.139157 -0.553600 -0.821074 105 77 51 255 2
0.032181 0.030611 0.558120 0.136146 -0.553678 -0.821526 106 78 52 255 2
0.032961 0.030607 0.558039 0.135796 -0.551330 -0.823161 105 77 52 255 2
0.033737 0.030599 0.557896 0.134899 -0.551836 -0.822970 104 75 50 255 2
0.034507 0.030586 0.557652 0.133655 -0.551960 -0.823090 105 75 49 255 2
0.035277 0.030573 0.557427 0.133236 -0.554571 -0.821401 104 73 48 255 2
0.036048 0.030562 0.557224 0.129133 -0.559494 -0.818713 104 73 48 255 2
0.036819 0.030552 0.557040 0.127749 -0.561233 -0.817739 104 73 48 255 2
0.037590 0.030542 0.556857 0.126184 -0.560883 -0.818222 101 71 47 255 2
0.038368 0.030538 0.556776 0.123137 -0.564223 -0.816388 100 70 46 255 2
0.039145 0.030533 0.556694 0.120803 -0.566372 -0.815248 99 69 45 255 2
0.039922 0.030529 0.556613 0.117189 -0.568370 -0.814385 99 68 45 255 2
0.040697 0.030523 0.556511 0.114469 -0.570372 -0.813371 98 68 45 255 2
0.041469 0.030515 0.556368 0.111215 -0.574015 -0.811257 96 68 45 255 2
0.042241 0.030507 0.556226 0.108983 -0.576860 -0.809540 94 67 45 255 2
0.043014 0.030501 0.556103 0.107581 -0.577757 -0.809088 92 66 44 255 2
0.043794 0.030500 0.556083 0.103353 -0.581181 -0.807184 91 66 44 255 2
0.044591 0.030510 0.556266 0.097109 -0.583543 -0.806255 92 67 45 255 2
0.045377 0.030512 0.556307 0.093365 -0.587368 -0.803917 93 68 45 255 2
0.046150 0.030506 0.556205 0.090842 -0.588896 -0.803088 94 69 47 255 2
0.046940 0.030511 0.556287 0.085776 -0.590705 -0.802316 95 72 50 255 2
0.047732 0.030517 0.556409 0.079846 -0.593087 -0.801169 91 71 51 255 2
0.048547 0.030538 0.556776 0.073313 -0.595179 -0.800242 86 72 52 255 2
-0.046192 0.033594 0.597193 0.127509 -0.572040 -0.810254 75 67 51 255 2
-0.042447 0.031442 0.558935 -0.098192 -0.580635 -0.808221 82 68 49 255 2
-0.041636 0.031424 0.558609 -0.106138 -0.576190 -0.810395 85 67 47 255 2
-0.040842 0.031417 0.558487 -0.111016 -0.573564 -0.811603 89 69 48 255 2
-0.040051 0.031412 0.558405 -0.116222 -0.570385 -0.813113 91 70 48 255 2
-0.039260 0.031408 0.558324 -0.121867 -0.565472 -0.815714 90 70 48 255 2
-0.038474 0.031408 0.558324 -0.126338 -0.562384 -0.817168 89 69 47 255 2
-0.037689 0.031408 0.558324 -0.130432 -0.558958 -0.818873 88 68 46 255 2
-0.036904 0.031408 0.558324 -0.133865 -0.556825 -0.819772 90 69 47 255 2
-0.036120 0.031409 0.558344 -0.139800 -0.552340 -0.821813 89 68 46 255 2
-0.035341 0.031415 0.558446 -0.143915 -0.547613 -0.824262 89 70 47 255 2
-0.034564 0.031421 0.558568 -0.147461 -0.544880 -0.825446 89 69 47 255 2
-0.033787 0.031429 0.558711 -0.151001 -0.540455 -0.827712 91 71 48 255 2
-0.033012 0.031440 0.558894 -0.156036 -0.534402 -0.830703 92 71 48 255 2
-0.032236 0.031450 0.559078 -0.161383 -0.527293 -0.834217 92 71 48 255 2
-0.031451 0.031451 0.559098 -0.165101 -0.524536 -0.835227 93 73 49 255 2
-0.030667 0.031453 0.559139 -0.170149 -0.518602 -0.837915 94 73 50 255 2
-0.029881 0.031453 0.559139 -0.172579 -0.516192 -0.838905 95 74 51 255 2
-0.029094 0.031453 0.559139 -0.170878 -0.523958 -0.834427 95 72 50 255 2
-0.028307 0.031452 0.559118 -0.167492 -0.536471 -0.827131 95 72 49 255 2
-0.027521 0.031452 0.559118 -0.163684 -0.556389 -0.814640 97 73 50 255 2
-0.026734 0.031451 0.559098 -0.140341 -0.629685 -0.764069 99 74 50 255 2
-0.025933 0.031434 0.558792 -0.134018 -0.683753 -0.717301 98 73 50 255 2
-0.025132 0.031415 0.558446 -0.139812 -0.721881 -0.677747 100 75 50 255 2
-0.024329 0.031393 0.558059 -0.160138 -0.742437 -0.650494 101 76 51 255 2
-0.023516 0.031355 0.557387 -0.187457 -0.745870 -0.639170 103 76 52 255 2
-0.022694 0.031302 0.556450 -0.228687 -0.732995 -0.640641 105 78 53 255 4
-0.021882 0.031260 0.555696 -0.263946 -0.721565 -0.640060 109 79 54 255 4
-0.021073 0.031219 0.554963 -0.297404 -0.696374 -0.653157 111 82 55 255 4
-0.020255 0.031161 0.553944 -0.333318 -0.666983 -0.666358 114 84 56 255 4
-0.019417 0.031067 0.552273 -0.384964 -0.618755 -0.684796 118 88 59 255 4
-0.018575 0.030958 0.550338 -0.424939 -0.591522 -0.685222 117 88 60 255 4
-0.017760 0.030887 0.549075 -0.447949 -0.580564 -0.679917 118 89 62 255 4
-0.016947 0.030813 0.547751 -0.463800 -0.576651 -0.672580 118 90 64 255 4
-0.016147 0.030756 0.546732 -0.474002 -0.571955 -0.669470 118 91 65 255 4
-0.015347 0.030694 0.545632 -0.470343 -0.575590 -0.668935 120 94 68 255 4
-0.014552 0.030635 0.544593 -0.454983 -0.581711 -0.674242 119 94 69 255 4
-0.013763 0.030584 0.543677 -0.438250 -0.583946 -0.683333 118 95 71 255 4
-0.012979 0.030538 0.542862 -0.416115 -0.587293 -0.694215 118 96 72 255 4
-0.012202 0.030506 0.542291 -0.393136 -0.592772 -0.702898 118 97 73 255 4
-0.011433 0.030489 0.541986 -0.373608 -0.596182 -0.710622 120 99 75 255 4
-0.010665 0.030471 0.541680 -0.350443 -0.601275 -0.718093 123 101 76 255 4
-0.009897 0.030453 0.541354 -0.326962 -0.604931 -0.726054 124 102 78 255 4
-0.009132 0.030439 0.541110 -0.299860 -0.611004 -0.732638 124 102 78 255 4
-0.008368 0.030428 0.540906 -0.276582 -0.614762 -0.738628 126 103 79 255 4
-0.007604 0.030416 0.540702 -0.248908 -0.620715 -0.743477 126 104 81 255 4
-0.006842 0.030407 0.540539 -0.230068 -0.623354 -0.747328 127 106 82 255 4
-0.006080 0.030398 0.540376 -0.206160 -0.627477 -0.750847 129 108 83 255 4
-0.005318 0.030389 0.540213 -0.183774 -0.629069 -0.755314 132 110 84 255 4
-0.004557 0.030377 0.540010 -0.159986 -0.629381 -0.760450 134 111 85 255 4
-0.003796 0.030371 0.539888 -0.135657 -0.631504 -0.763414 134 111 84 255 4
-0.003037 0.030366 0.539806 -0.117329 -0.632383 -0.765719 135 111 85 255 4
-0.002277 0.030366 0.539806 -0.095598 -0.633436 -0.767867 133 110 83 255 4
-0.001518 0.030368 0.539847 -0.073376 -0.635744 -0.768404 135 110 84 255 4
-0.000759 0.030376 0.539989 -0.054397 -0.639491 -0.766872 135 111 83 255 4
0.000000 0.030383 0.540112 -0.035022 -0.641344 -0.766454 136 111 84 255 4
0.000760 0.030382 0.540091 -0.015840 -0.642242 -0.766338 136 112 85 255 4
0.001519 0.030381 0.540071 0.001210 -0.641733 -0.766927 136 112 86 255 4
0.002279 0.030382 0.540091 0.020222 -0.640923 -0.767339 135 112 86 255 4
0.003038 0.030380 0.540051 0.040788 -0.640676 -0.766727 132 108 83 255 4
0.003796 0.030372 0.539908 0.059760 -0.638134 -0.767603 133 108 83 255 4
0.004555 0.030365 0.539786 0.078701 -0.634664 -0.768770 134 109 84 255 4
0.005314 0.030365 0.539786 0.101806 -0.633442 -0.767064 135 109 83 255 4
0.006073 0.030364 0.539765 0.120527 -0.632518 -0.765110 135 108 82 255 4
0.006833 0.030371 0.539888 0.144093 -0.632187 -0.761299 135 110 83 255 4
0.007595 0.030380 0.540051 0.165381 -0.630961 -0.757983 136 111 84 255 4
0.008358 0.030391 0.540254 0.184039 -0.630119 -0.754374 134 110 83 255 4
0.009120 0.030399 0.540397 0.213179 -0.627093 -0.749206 133 109 83 255 4
0.009883 0.030408 0.540560 0.231270 -0.624013 -0.746406 131 107 81 255 4
0.010645 0.030415 0.540682 0.258098 -0.619889 -0.741028 128 104 79 255 4
0.011410 0.030428 0.540906 0.278090 -0.618480 -0.734948 126 102 77 255 4
0.012176 0.030440 0.541130 0.303668 -0.615120 -0.727607 126 101 76 255 4
0.012944 0.030456 0.541415 0.324505 -0.613039 -0.720333 128 103 78 255 4
0.013714 0.030476 0.541762 0.348287 -0.607086 -0.714243 127 102 76 255 4
0.014486 0.030497 0.542128 0.372343 -0.605082 -0.703730 126 101 75 255 4
0.015261 0.030522 0.542577 0.395951 -0.599025 -0.695983 127 101 75 255 4
0.016045 0.030562 0.543290 0.423697 -0.596181 -0.681945 129 102 75 255 4
0.016836 0.030610 0.544145 0.447262 -0.593270 -0.669319 131 103 75 255 4
0.017636 0.030671 0.545225 0.460689 -0.590883 -0.662286 130 103 75 255 4
0.018449 0.030748 0.546590 0.462450 -0.591496 -0.660509 127 100 72 255 4
0.019256 0.030809 0.547690 0.454522 -0.593655 -0.664066 127 100 72 255 4
0.020082 0.030895 0.549218 0.432053 -0.604946 -0.668858 127 98 69 255 4
0.020914 0.030984 0.550786 0.409868 -0.612197 -0.676183 126 96 68 255 4
0.021770 0.031099 0.552844 0.378371 -0.634411 -0.674061 123 92 64 255 4
0.022621 0.031201 0.554657 0.343553 -0.651823 -0.676090 117 85 59 255 4
0.023435 0.031247 0.555472 0.323287 -0.658651 -0.679459 117 86 59 255 4
0.024251 0.031292 0.556266 0.297388 -0.664203 -0.685853 116 86 58 255 4
0.025078 0.031347 0.557244 0.264234 -0.659409 -0.703819 116 86 58 255 4
0.025897 0.031390 0.558018 0.235519 -0.645754 -0.726314 115 85 57 255 2
0.026699 0.031411 0.558385 0.209710 -0.631693 -0.746315 112 82 56 255 2
0.027504 0.031433 0.558772 0.187072 -0.614333 -0.766550 109 80 55 255 2
0.028303 0.031448 0.559037 0.169257 -0.591686 -0.788200 105 78 53 255 2
0.029087 0.031445 0.558996 0.154150 -0.584129 -0.796889 103 76 51 255 2
0.029871 0.031443 0.558955 0.143951 -0.568729 -0.809830 100 74 50 255 2
0.030654 0.031440 0.558894 0.137402 -0.565365 -0.813316 99 74 50 255 2
0.031436 0.031436 0.558833 0.136927 -0.557760 -0.818629 98 72 48 255 2
0.032218 0.031432 0.558752 0.134454 -0.556202 -0.820099 98 73 49 255 2
0.032997 0.031426 0.558650 0.134420 -0.553457 -0.821959 96 70 46 255 2
0.033777 0.031420 0.558548 0.131652 -0.555043 -0.821337 97 70 45 255 2
0.034547 0.031407 0.558303 0.131577 -0.557284 -0.819830 99 70 45 255 2
0.035318 0.031394 0.558079 0.128479 -0.560671 -0.818010 100 70 45 255 2
0.036090 0.031382 0.557876 0.127599 -0.560514 -0.818256 99 70 45 255 2
0.036861 0.031371 0.557672 0.127368 -0.561095 -0.817894 97 70 45 255 2
0.037631 0.031360 0.557468 0.124346 -0.564584 -0.815955 95 69 45 255 2
0.038410 0.031355 0.557387 0.121457 -0.568860 -0.813417 93 68 45 255 2
0.039191 0.031353 0.557346 0.119127 -0.569106 -0.813589 91 67 45 255 2
0.039972 0.031350 0.557305 0.115093 -0.572228 -0.811978 89 64 43 255 2
0.040749 0.031346 0.557224 0.111337 -0.574630 -0.810805 89 64 43 255 2
0.041524 0.031339 0.557102 0.110447 -0.575067 -0.810616 87 64 42 255 2
0.042303 0.031335 0.557040 0.108398 -0.576512 -0.809867 85 63 42 255 2
0.043088 0.031337 0.557061 0.103497 -0.580336 -0.807774 86 64 43 255 2
0.043882 0.031345 0.557203 0.101088 -0.581157 -0.807488 86 65 45 255 2
0.044681 0.031355 0.557387 0.095350 -0.584636 -0.805673 87 68 48 255 2
0.045480 0.031365 0.557570 0.089678 -0.587718 -0.804081 85 70 50 255 2
0.046338 0.031416 0.558466 0.081027 -0.589115 -0.803977 80 71 52 255 2
-0.042792 0.034401 0.596622 0.125185 -0.577633 -0.806641 77 71 52 255 2
-0.039368 0.032282 0.559872 -0.116147 -0.569790 -0.813541 83 71 51 255 2
-0.038577 0.032279 0.559811 -0.120203 -0.565811 -0.815727 84 70 49 255 2
-0.037787 0.032276 0.559770 -0.125283 -0.563172 -0.816787 85 69 48 255 2
-0.036997 0.032274 0.559729 -0.129811 -0.559591 -0.818540 85 68 48 255 2
-0.036208 0.032273 0.559709 -0.134675 -0.554851 -0.820977 85 67 47 255 2
-0.035424 0.032275 0.559750 -0.140008 -0.550487 -0.823020 84 67 47 255 2
-0.034640 0.032279 0.559811 -0.143446 -0.547284 -0.824562 85 67 47 255 2
-0.033859 0.032284 0.559913 -0.147809 -0.543794 -0.826100 86 68 47 255 2
-0.033082 0.032294 0.560076 -0.151277 -0.539277 -0.828429 85 67 46 255 2
-0.032303 0.032303 0.560239 -0.156685 -0.533495 -0.831163 84 68 46 255 2
-0.031514 0.032302 0.560218 -0.162204 -0.527464 -0.833949 84 69 48 255 2
-0.030721 0.032296 0.560117 -0.164016 -0.525668 -0.834728 82 68 47 255 2
-0.029927 0.032289 0.559994 -0.163902 -0.528257 -0.833115 83 67 47 255 2
-0.029127 0.032276 0.559770 -0.167701 -0.529454 -0.831598 82 65 45 255 2
-0.028338 0.032274 0.559729 -0.161641 -0.546489 -0.821719 83 63 43 255 2
-0.027550 0.032273 0.559709 -0.152196 -0.574105 -0.804512 84 63 43 255 2
-0.026761 0.032270 0.559668 -0.135495 -0.637149 -0.758737 87 66 44 255 2
-0.025952 0.032243 0.559200 -0.133217 -0.687420 -0.713938 90 67 45 255 2
-0.025142 0.032213 0.558670 -0.147222 -0.713243 -0.685281 94 70 47 255 2
-0.024335 0.032185 0.558181 -0.169071 -0.729160 -0.663130 97 72 48 255 2
-0.023523 0.032148 0.557550 -0.199200 -0.730522 -0.653190 100 73 50 255 2
-0.022701 0.032094 0.556613 -0.240460 -0.715794 -0.655606 102 75 51 255 4
-0.021881 0.032040 0.555676 -0.283827 -0.689784 -0.666063 107 77 53 255 4
-0.021072 0.031998 0.554942 -0.313510 -0.668595 -0.674308 110 80 54 255 4
-0.020247 0.031929 0.553740 -0.355879 -0.634468 -0.686149 113 82 55 255 4
-0.019413 0.031837 0.552151 -0.397719 -0.603790 -0.690838 119 88 59 255 4
-0.018572 0.031728 0.550257 -0.436299 -0.579973 -0.687949 117 88 60 255 4
-0.017751 0.031643 0.548790 -0.461984 -0.568488 -0.680730 118 89 62 255 4
-0.016934 0.031559 0.547323 -0.479521 -0.559446 -0.676077 118 91 64 255 4
-0.016132 0.031496 0.546243 -0.485271 -0.560040 -0.671467 119 92 66 255 4
-0.015328 0.031422 0.544960 -0.479599 -0.560516 -0.675135 120 93 68 255 4
-0.014531 0.031357 0.543819 -0.464093 -0.563836 -0.683159 118 92 67 255 4
-0.013746 0.031310 0.543004 -0.440365 -0.570413 -0.693331 116 92 68 255 4
-0.012964 0.031267 0.542271 -0.415304 -0.575630 -0.704396 116 94 70 255 4
-0.012190 0.031237 0.541741 -0.393980 -0.579517 -0.713400 118 97 73 255 4
-0.011421 0.031217 0.541395 -0.374599 -0.581572 -0.722115 120 98 74 255 4
-0.010652 0.031196 0.541028 -0.348107 -0.588513 -0.729708 121 99 75 255 4
-0.009885 0.031176 0.540682 -0.328980 -0.592938 -0.734981 121 98 75 255 4
-0.009121 0.031164 0.540478 -0.300595 -0.596460 -0.744230 122 98 75 255 4
-0.008357 0.031150 0.540234 -0.279344 -0.601007 -0.748837 124 99 77 255 4
-0.007595 0.031140 0.540071 -0.250080 -0.605178 -0.755791 125 102 79 255 4
-0.006834 0.031132 0.539928 -0.232049 -0.606715 -0.760296 128 106 83 255 4
-0.006073 0.031123 0.539765 -0.202504 -0.609668 -0.766353 131 110 86 255 4
-0.005312 0.031111 0.539562 -0.185554 -0.609109 -0.771074 134 112 86 255 4
-0.004550 0.031095 0.539276 -0.157107 -0.608069 -0.778184 137 114 88 255 4
-0.003791 0.031089 0.539175 -0.138239 -0.608830 -0.781163 136 113 86 255 4
-0.003033 0.031088 0.539154 -0.112452 -0.611333 -0.783343 135 112 86 255 4
-0.002275 0.031089 0.539175 -0.094775 -0.612107 -0.785075 134 111 84 255 4
-0.001517 0.031092 0.539236 -0.072913 -0.614332 -0.785672 134 110 84 255 4
-0.000759 0.031099 0.539358 -0.055469 -0.615338 -0.786310 136 110 83 255 4
0.000000 0.031105 0.539460 -0.036285 -0.618616 -0.784855 137 111 84 255 4
0.000759 0.031103 0.539419 -0.016908 -0.618392 -0.785688 136 111 85 255 4
0.001517 0.031102 0.539399 0.002377 -0.617591 -0.786496 136 112 86 255 4
0.002276 0.031104 0.539439 0.021825 -0.618079 -0.785813 136 112 86 255 4
0.003034 0.031103 0.539419 0.040530 -0.617520 -0.785511 132 108 84 255 4
0.003792 0.031096 0.539297 0.058580 -0.614706 -0.786578 133 108 83 255 4
0.004550 0.031089 0.539175 0.077874 -0.613182 -0.786094 134 109 84 255 4
0.005307 0.031086 0.539134 0.100734 -0.611828 -0.784550 134 109 83 255 4
0.006065 0.031083 0.539073 0.119233 -0.609751 -0.783573 136 111 85 255 4
0.006824 0.031086 0.539134 0.140303 -0.609264 -0.780456 136 113 86 255 4
0.007584 0.031095 0.539276 0.166207 -0.607763 -0.776530 137 113 86 255 4
0.008348 0.031115 0.539623 0.183835 -0.611848 -0.769316 136 113 86 255 4
0.009109 0.031124 0.539786 0.212373 -0.610879 -0.762709 135 111 85 255 4
0.009872 0.031133 0.539949 0.234678 -0.608924 -0.757718 132 108 83 255 4
0.010634 0.031142 0.540091 0.253941 -0.604978 -0.754662 126 102 79 255 4
0.011397 0.031152 0.540275 0.281953 -0.602019 -0.747045 123 97 75 255 4
0.012162 0.031165 0.540499 0.298198 -0.599969 -0.742371 121 95 73 255 4
0.012928 0.031179 0.540743 0.327214 -0.597474 -0.732090 123 97 73 255 4
0.013698 0.031201 0.541130 0.351717 -0.592892 -0.724413 126 100 75 255 4
0.014470 0.031224 0.541517 0.369129 -0.591984 -0.716448 126 100 74 255 4
0.015244 0.031251 0.541986 0.397262 -0.586355 -0.705954 126 100 74 255 4
0.016023 0.031284 0.542556 0.422550 -0.582750 -0.694157 127 101 74 255 4
0.016813 0.031333 0.543412 0.452153 -0.577660 -0.679607 128 101 74 255 4
0.017613 0.031396 0.544512 0.471093 -0.574485 -0.669356 128 100 72 255 4
0.018423 0.031473 0.545836 0.478513 -0.574671 -0.663912 127 99 71 255 4
0.019238 0.031550 0.547181 0.471180 -0.576842 -0.667266 126 99 70 255 4
0.020063 0.031638 0.548708 0.447626 -0.589972 -0.671985 127 98 69 255 4
0.020905 0.031745 0.550562 0.417146 -0.604729 -0.678448 125 95 67 255 4
0.021758 0.031860 0.552559 0.387014 -0.622248 -0.680461 122 91 64 255 4
0.022616 0.031974 0.554535 0.346424 -0.648841 -0.677492 118 86 60 255 4
0.023435 0.032027 0.555451 0.324087 -0.656416 -0.681238 115 84 58 255 4
0.024258 0.032084 0.556429 0.297441 -0.664484 -0.685558 112 82 56 255 4
0.025085 0.032140 0.557407 0.261432 -0.667752 -0.696965 110 81 55 255 4
0.025905 0.032185 0.558181 0.234245 -0.653891 -0.719414 107 79 53 255 2
0.026713 0.032213 0.558670 0.206671 -0.642971 -0.737479 104 76 52 255 2
0.027524 0.032242 0.559179 0.182980 -0.624522 -0.759270 100 74 50 255 2
0.028333 0.032268 0.559628 0.161684 -0.605888 -0.778947 96 71 48 255 2
0.029118 0.032266 0.559587 0.149774 -0.588789 -0.794289 94 70 48 255 2
0.029904 0.032264 0.559566 0.138788 -0.574910 -0.806360 92 70 48 255 2
0.030691 0.032264 0.559566 0.134918 -0.568740 -0.811376 92 71 49 255 2
0.031483 0.032270 0.559668 0.133543 -0.559733 -0.817842 91 70 47 255 2
0.032270 0.032270 0.559668 0.131156 -0.556537 -0.820405 92 69 46 255 2
0.033060 0.032273 0.559709 0.128737 -0.557630 -0.820046 92 68 44 255 2
0.033841 0.032267 0.559607 0.129567 -0.555201 -0.821562 93 69 44 255 2
0.034613 0.032253 0.559363 0.126022 -0.560535 -0.818486 94 69 44 255 2
0.035386 0.032241 0.559159 0.126185 -0.560603 -0.818414 94 68 44 255 2
0.036161 0.032230 0.558976 0.123992 -0.561917 -0.817848 93 68 44 255 2
0.036935 0.032220 0.558792 0.124683 -0.560885 -0.818451 93 69 46 255 2
0.037710 0.032210 0.558629 0.120884 -0.565731 -0.815681 93 69 46 255 2
0.038491 0.032207 0.558568 0.117502 -0.567952 -0.814631 90 69 46 255 2
0.039272 0.032203 0.558507 0.115338 -0.570832 -0.812926 88 68 46 255 2
0.040055 0.032201 0.558466 0.110478 -0.574156 -0.811258 87 67 47 255 2
0.040837 0.032199 0.558426 0.109728 -0.574792 -0.810909 84 66 47 255 2
0.041627 0.032202 0.558487 0.104774 -0.578479 -0.808940 80 66 47 255 2
0.042427 0.032213 0.558670 0.101193 -0.578993 -0.809029 79 68 49 255 2
0.046149 0.034402 0.596643 -0.183142 -0.600204 -0.778597 76 70 52 255 2
-0.036884 0.035208 0.596072 0.112352 -0.572754 -0.811991 72 68 50 255 2
-0.034018 0.033227 0.562541 -0.132039 -0.555219 -0.821156 74 68 50 255 2
-0.033223 0.033223 0.562480 -0.129043 -0.559943 -0.818420 77 70 52 255 2
-0.032425 0.033216 0.562357 -0.123990 -0.568445 -0.813325 78 71 53 255 2
-0.031633 0.033215 0.562337 -0.122031 -0.572207 -0.810980 76 70 52 255 2
-0.030831 0.033203 0.562133 -0.119182 -0.579474 -0.806229 74 68 50 255 2
-0.030031 0.033192 0.561950 -0.112939 -0.590370 -0.799192 75 67 49 255 2
-0.029214 0.033162 0.561441 -0.126998 -0.579297 -0.805162 79 65 47 255 2
-0.028412 0.033148 0.561196 -0.121504 -0.600313 -0.790481 81 63 45 255 2
-0.027611 0.033133 0.560952 -0.110080 -0.634118 -0.765360 82 62 43 255 2
-0.026808 0.033115 0.560646 -0.106254 -0.677667 -0.727652 84 62 43 255 2
-0.025976 0.033060 0.559709 -0.130786 -0.691577 -0.710364 86 64 43 255 2
-0.025164 0.033027 0.559159 -0.147162 -0.714512 -0.683971 88 66 44 255 2
-0.024352 0.032994 0.558589 -0.169252 -0.725560 -0.667021 93 69 45 255 2
-0.023534 0.032948 0.557815 -0.210558 -0.707740 -0.674365 96 71 47 255 2
-0.022710 0.032890 0.556837 -0.255209 -0.688380 -0.678971 100 73 49 255 4
-0.021888 0.032832 0.555859 -0.298472 -0.661024 -0.688449 104 75 50 255 4
-0.021070 0.032776 0.554901 -0.330967 -0.639656 -0.693759 109 78 52 255 4
-0.020241 0.032698 0.553577 -0.375944 -0.602805 -0.703770 112 81 54 255 4
-0.019406 0.032601 0.551948 -0.416652 -0.577369 -0.702172 118 87 59 255 4
-0.018568 0.032494 0.550134 -0.450556 -0.563102 -0.692760 116 87 60 255 4
-0.017738 0.032391 0.548382 -0.481467 -0.545872 -0.685721 117 88 61 255 4
-0.016921 0.032304 0.546916 -0.496961 -0.541913 -0.677761 117 89 63 255 4
-0.016114 0.032227 0.545612 -0.500303 -0.541874 -0.675329 118 91 65 255 4
-0.015311 0.032153 0.544349 -0.489774 -0.545658 -0.679985 118 91 66 255 4
-0.014514 0.032084 0.543188 -0.467848 -0.551253 -0.690824 116 90 66 255 4
-0.013729 0.032035 0.542353 -0.443129 -0.557584 -0.701952 115 91 67 255 4
-0.012951 0.031997 0.541721 -0.418874 -0.560740 -0.714224 116 93 69 255 4
-0.012178 0.031966 0.541191 -0.395546 -0.566531 -0.722901 119 96 73 255 4
-0.011408 0.031943 0.540804 -0.374415 -0.569891 -0.731462 120 98 74 255 4
-0.010640 0.031919 0.540397 -0.354826 -0.572957 -0.738796 118 95 73 255 4
-0.009874 0.031901 0.540091 -0.323362 -0.575681 -0.751018 114 90 70 255 4
-0.009111 0.031889 0.539888 -0.302330 -0.579510 -0.756812 114 87 66 255 4
-0.008348 0.031875 0.539643 -0.272790 -0.580667 -0.767080 117 90 69 255 4
-0.007587 0.031864 0.539460 -0.250682 -0.586065 -0.770510 126 101 80 255 4
-0.006826 0.031855 0.539317 -0.230265 -0.588445 -0.775055 131 108 84 255 4
-0.006066 0.031845 0.539134 -0.207728 -0.588508 -0.781350 134 112 88 255 4
-0.005304 0.031825 0.538808 -0.183541 -0.590502 -0.785888 136 114 89 255 4
-0.004545 0.031813 0.538604 -0.157762 -0.589941 -0.791885 137 115 89 255 4
-0.003787 0.031808 0.538523 -0.136611 -0.591129 -0.794924 136 114 87 255 4
-0.003029 0.031807 0.538502 -0.112044 -0.592334 -0.797864 136 113 86 255 4
-0.002272 0.031810 0.538543 -0.094772 -0.594114 -0.798778 134 111 85 255 4
-0.001515 0.031814 0.538625 -0.074348 -0.595792 -0.799690 135 111 84 255 4
-0.000758 0.031823 0.538767 -0.053794 -0.598717 -0.799152 137 111 85 255 4
0.000000 0.031828 0.538849 -0.035732 -0.600327 -0.798956 138 112 86 255 4
0.000758 0.031825 0.538808 -0.016822 -0.600337 -0.799571 137 113 86 255 4
0.001515 0.031824 0.538787 0.002255 -0.599979 -0.800013 135 111 85 255 4
0.002273 0.031825 0.538808 0.021236 -0.599385 -0.800179 136 112 86 255 4
0.003031 0.031828 0.538849 0.040886 -0.599767 -0.799129 133 109 84 255 4
0.003788 0.031819 0.538706 0.057765 -0.597566 -0.799736 134 109 85 255 4
0.004544 0.031811 0.538563 0.077549 -0.594513 -0.800338 134 109 85 255 4
0.005301 0.031807 0.538502 0.094423 -0.592600 -0.799943 134 109 84 255 4
0.006059 0.031808 0.538523 0.118718 -0.592435 -0.796823 135 111 86 255 4
0.006816 0.031810 0.538543 0.137230 -0.591520 -0.794526 135 113 86 255 4
0.007575 0.031814 0.538625 0.164487 -0.590784 -0.789885 136 113 86 255 4
0.008336 0.031829 0.538869 0.185136 -0.591297 -0.784915 137 114 87 255 4
0.009098 0.031845 0.539134 0.207847 -0.590141 -0.780085 136 113 87 255 4
0.009860 0.031854 0.539297 0.235625 -0.589500 -0.772639 134 109 84 255 4
0.010621 0.031864 0.539460 0.255256 -0.584667 -0.770071 130 103 80 255 4
0.011384 0.031876 0.539663 0.280762 -0.583763 -0.761836 123 94 74 255 4
0.012148 0.031889 0.539888 0.302052 -0.582563 -0.754576 116 86 65 255 4
0.012914 0.031905 0.540152 0.319112 -0.581264 -0.748532 118 89 67 255 4
0.013683 0.031926 0.540519 0.350992 -0.578442 -0.736349 124 96 73 255 4
0.014453 0.031949 0.540906 0.372592 -0.575689 -0.727844 126 99 74 255 4
0.015227 0.031977 0.541375 0.397090 -0.573789 -0.716300 125 99 73 255 4
0.016006 0.032012 0.541965 0.422737 -0.570636 -0.704037 127 100 74 255 4
0.016792 0.032058 0.542740 0.447933 -0.566205 -0.691930 126 99 72 255 4
0.017592 0.032125 0.543880 0.478195 -0.560783 -0.675908 127 99 71 255 4
0.018401 0.032202 0.545184 0.492973 -0.557647 -0.667838 127 99 71 255 4
0.019221 0.032291 0.546692 0.488077 -0.559023 -0.670279 126 98 70 255 4
0.020051 0.032390 0.548362 0.464783 -0.572649 -0.675314 126 98 69 255 4
0.020895 0.032503 0.550277 0.430843 -0.593007 -0.680234 125 95 67 255 4
0.021746 0.032619 0.552253 0.394877 -0.610091 -0.686921 120 89 62 255 4
0.022610 0.032746 0.554392 0.353043 -0.639377 -0.683050 116 84 58 255 4
0.023448 0.032828 0.555777 0.322024 -0.656438 -0.682194 112 81 55 255 4
0.024274 0.032888 0.556796 0.295626 -0.665054 -0.685790 106 77 52 255 4
0.025102 0.032947 0.557794 0.259272 -0.668457 -0.697097 101 74 50 255 4
0.025930 0.033002 0.558731 0.228198 -0.659192 -0.716513 99 72 49 255 2
0.026739 0.033031 0.559220 0.204119 -0.647923 -0.733847 96 70 48 255 2
0.027552 0.033062 0.559750 0.177781 -0.631934 -0.754356 92 68 47 255 2
0.028388 0.033119 0.560707 0.153003 -0.605829 -0.780744 91 69 48 255 2
0.029189 0.033133 0.560952 0.139174 -0.584907 -0.799071 89 68 48 255 2
0.029984 0.033140 0.561074 0.131596 -0.569658 -0.811278 88 69 48 255 2
0.030781 0.033149 0.561217 0.128818 -0.563058 -0.816316 87 72 50 255 2
0.031589 0.033168 0.561543 0.124885 -0.554456 -0.822789 85 71 49 255 2
0.032380 0.033169 0.561563 0.124370 -0.553331 -0.823625 85 71 49 255 2
0.033174 0.033174 0.561644 0.122650 -0.551910 -0.824835 85 71 50 255 2
0.033950 0.033161 0.561420 0.121786 -0.554257 -0.823388 84 70 48 255 2
0.034726 0.033148 0.561196 0.118620 -0.558743 -0.820814 84 70 48 255 2
0.035502 0.033136 0.560993 0.117920 -0.562555 -0.818307 81 69 48 255 2
0.036285 0.033130 0.560891 0.116840 -0.562102 -0.818773 80 69 49 255 2
0.037066 0.033122 0.560768 0.114310 -0.563575 -0.818118 78 68 48 255 2
0.037849 0.033118 0.560687 0.113714 -0.564351 -0.817666 77 68 49 255 2
0.041076 0.035208 0.596072 -0.154669 -0.608337 -0.778462 74 68 49 255 2
-0.026034 0.033923 0.560972 -0.108402 -0.712201 -0.693555 72 59 42 255 2
-0.025197 0.033858 0.559892 -0.141366 -0.718327 -0.681192 83 63 43 255 2
-0.024378 0.033815 0.559179 -0.172403 -0.713366 -0.679255 91 67 44 255 2
-0.023556 0.033763 0.558324 -0.210150 -0.704482 -0.677896 93 68 44 255 2
-0.022728 0.033700 0.557285 -0.253991 -0.686167 -0.681663 99 72 48 255 4
-0.021906 0.033641 0.556307 -0.296016 -0.663328 -0.687292 103 74 49 255 4
-0.021071 0.033557 0.554922 -0.343870 -0.622022 -0.703451 106 76 51 255 4
-0.020239 0.033472 0.553516 -0.387667 -0.592203 -0.706406 112 80 54 255 4
-0.019398 0.033364 0.551723 -0.429417 -0.565861 -0.703848 117 85 58 255 4
-0.018563 0.033258 0.549971 -0.465738 -0.545488 -0.696800 116 86 60 255 4
-0.017730 0.033147 0.548138 -0.497290 -0.530230 -0.686701 118 89 62 255 4
-0.016914 0.033059 0.546671 -0.511952 -0.526730 -0.678573 116 88 63 255 4
-0.016097 0.032961 0.545062 -0.512126 -0.528164 -0.677325 117 90 64 255 4
-0.015297 0.032889 0.543860 -0.494791 -0.533661 -0.685848 117 90 65 255 4
-0.014499 0.032815 0.542638 -0.471792 -0.538078 -0.698487 115 88 64 255 4
-0.013714 0.032760 0.541741 -0.444827 -0.541954 -0.713032 115 89 65 255 4
-0.012938 0.032725 0.541151 -0.420803 -0.547988 -0.722934 116 92 68 255 4
-0.012165 0.032694 0.540641 -0.399496 -0.551248 -0.732481 119 95 72 255 4
-0.011396 0.032668 0.540213 -0.375027 -0.551846 -0.744863 119 97 74 255 4
-0.010629 0.032646 0.539847 -0.354840 -0.554985 -0.752383 115 92 71 255 4
-0.009864 0.032626 0.539521 -0.328310 -0.558106 -0.762057 112 86 66 255 4
-0.009101 0.032610 0.539256 -0.300693 -0.562593 -0.770113 113 83 64 255 4
-0.008338 0.032595 0.539012 -0.272968 -0.564846 -0.778741 121 93 71 255 4
-0.007578 0.032586 0.538849 -0.252788 -0.568700 -0.782738 131 105 82 255 4
-0.006819 0.032578 0.538726 -0.227002 -0.569484 -0.790037 133 110 86 255 4
-0.006059 0.032566 0.538523 -0.206476 -0.569052 -0.795957 135 112 88 255 4
-0.005299 0.032549 0.538237 -0.176146 -0.568866 -0.803345 136 113 88 255 4
-0.004541 0.032541 0.538115 -0.159908 -0.568958 -0.806670 136 113 88 255 4
-0.003784 0.032540 0.538095 -0.135748 -0.571411 -0.809359 135 114 87 255 4
-0.003027 0.032539 0.538074 -0.114249 -0.572531 -0.811884 135 112 86 255 4
-0.002270 0.032537 0.538054 -0.093872 -0.571689 -0.815083 134 111 84 255 4
-0.001514 0.032541 0.538115 -0.075361 -0.574164 -0.815265 135 111 84 255 4
-0.000757 0.032545 0.538176 -0.053089 -0.574862 -0.816526 137 112 86 255 4
0.000000 0.032549 0.538237 -0.034229 -0.577879 -0.815405 138 113 87 255 4
0.000757 0.032546 0.538197 -0.016799 -0.577125 -0.816483 137 113 87 255 4
0.001514 0.032544 0.538156 0.002612 -0.577072 -0.816689 135 112 86 255 4
0.002271 0.032546 0.538197 0.019908 -0.576810 -0.816636 136 113 87 255 4
0.003028 0.032549 0.538237 0.038106 -0.577252 -0.815676 135 112 86 255 4
0.003784 0.032545 0.538176 0.059079 -0.574804 -0.816156 135 111 86 255 4
0.004541 0.032541 0.538115 0.079698 -0.573205 -0.815527 136 111 86 255 4
0.005297 0.032539 0.538074 0.095934 -0.573515 -0.813558 135 111 86 255 4
0.006054 0.032540 0.538095 0.118986 -0.572208 -0.811431 135 111 85 255 4
0.006811 0.032540 0.538095 0.137826 -0.570700 -0.809510 134 112 86 255 4
0.007568 0.032542 0.538136 0.160920 -0.570353 -0.805483 135 113 86 255 4
0.008327 0.032552 0.538299 0.186572 -0.570012 -0.800173 135 112 85 255 4
0.009088 0.032567 0.538543 0.205078 -0.570723 -0.795122 135 112 86 255 4
