ply
format ascii 1.0
comment Created by labeled_geometry.py
element vertex 656
property float x
property float y
property float z
property float nx
property float ny
property float nz
property uchar red
property uchar green
property uchar blue
property uchar alpha
property uchar label
end_header
-0.034958 0.003824 0.388395 0.049633 -0.701106 -0.711327 119 87 65 255 2
-0.034371 0.003819 0.387942 0.046117 -0.703742 -0.708957 123 92 68 255 2
-0.033822 0.003819 0.387899 0.137284 -0.692471 -0.708263 123 93 68 255 2
-0.033278 0.003819 0.387921 0.171231 -0.687550 -0.705660 124 95 68 255 2
-0.032736 0.003819 0.387964 0.195051 -0.684900 -0.702045 126 97 71 255 2
-0.032211 0.003822 0.388201 0.209204 -0.681136 -0.701632 128 99 72 255 2
-0.031716 0.003828 0.388827 0.228399 -0.675512 -0.701083 124 96 68 255 2
-0.031217 0.003834 0.389431 0.238001 -0.671199 -0.702030 115 86 59 255 2
-0.030768 0.003846 0.390682 0.255038 -0.661420 -0.705322 109 78 54 255 2
-0.030352 0.003863 0.392407 0.272206 -0.645806 -0.713329 90 70 51 255 2
-0.015369 0.003985 0.404767 -0.258051 0.233557 -0.937476 59 47 35 255 1
-0.014727 0.003965 0.402761 -0.331706 0.290322 -0.897599 59 45 33 255 1
-0.014110 0.003951 0.401337 -0.407307 0.321104 -0.854982 63 46 32 255 1
-0.013512 0.003941 0.400324 -0.474802 0.342185 -0.810847 66 46 32 255 1
-0.012924 0.003933 0.399569 -0.525662 0.358314 -0.771550 68 47 32 255 1
-0.012342 0.003927 0.398921 -0.572848 0.366479 -0.733170 69 47 31 255 1
-0.011765 0.003922 0.398361 -0.599271 0.372441 -0.708634 71 48 31 255 1
-0.011189 0.003916 0.397821 -0.597171 0.379734 -0.706533 74 51 32 255 1
-0.010615 0.003911 0.397261 -0.582389 0.394426 -0.710810 76 51 33 255 1
-0.010044 0.003906 0.396764 -0.570375 0.396413 -0.719395 79 53 34 255 1
-0.009476 0.003902 0.396355 -0.553863 0.402581 -0.728810 81 54 34 255 1
-0.008910 0.003898 0.395988 -0.539149 0.409136 -0.736156 81 53 34 255 1
-0.008346 0.003895 0.395621 -0.521671 0.418333 -0.743544 82 55 35 255 1
-0.007782 0.003891 0.395255 -0.504148 0.422617 -0.753146 83 55 35 255 1
-0.007219 0.003887 0.394866 -0.483857 0.425481 -0.764754 83 56 35 255 1
-0.006657 0.003883 0.394478 -0.462980 0.427318 -0.776562 85 57 37 255 1
-0.006096 0.003879 0.394068 -0.446075 0.429911 -0.784980 85 57 36 255 1
-0.005536 0.003876 0.393680 -0.424292 0.428832 -0.797546 86 57 36 255 1
-0.004979 0.003872 0.393356 -0.406683 0.426344 -0.807985 88 58 37 255 1
-0.004423 0.003870 0.393141 -0.387687 0.428822 -0.815972 90 59 38 255 1
-0.003868 0.003868 0.392925 -0.368572 0.430707 -0.823800 91 59 38 255 1
-0.003314 0.003866 0.392709 -0.350713 0.430131 -0.831858 93 60 39 255 1
-0.002760 0.003864 0.392472 -0.334029 0.428095 -0.839738 96 63 42 255 1
-0.002206 0.003861 0.392213 -0.318031 0.423963 -0.848004 97 64 43 255 1
-0.001654 0.003859 0.391954 -0.303294 0.417372 -0.856629 99 65 43 255 1
-0.001102 0.003858 0.391868 -0.290444 0.410846 -0.864204 100 66 43 255 1
-0.000551 0.003857 0.391825 -0.280338 0.405145 -0.870211 100 66 43 255 1
0.000000 0.003857 0.391825 -0.270007 0.399089 -0.876256 99 65 42 255 1
0.000551 0.003857 0.391803 -0.261442 0.391047 -0.882457 98 65 42 255 1
0.001102 0.003856 0.391739 -0.253984 0.380832 -0.889078 99 66 43 255 1
0.001652 0.003856 0.391652 -0.245417 0.370082 -0.895997 99 67 44 255 1
0.002203 0.003855 0.391631 -0.238086 0.359031 -0.902447 99 68 45 255 1
0.002753 0.003854 0.391501 -0.226487 0.348705 -0.909455 98 69 45 255 1
0.003303 0.003853 0.391437 -0.217860 0.336057 -0.916299 100 72 48 255 1
0.003853 0.003853 0.391372 -0.214572 0.324111 -0.921364 103 74 50 255 1
0.004403 0.003852 0.391329 -0.209211 0.307218 -0.928357 104 75 51 255 1
0.004953 0.003852 0.391286 -0.200707 0.291825 -0.935176 106 77 53 255 1
0.005502 0.003851 0.391199 -0.193769 0.274953 -0.941729 109 78 54 255 1
0.006050 0.003850 0.391113 -0.188536 0.258102 -0.947543 109 79 54 255 1
0.006599 0.003849 0.391027 -0.177311 0.240415 -0.954338 111 80 56 255 1
0.007147 0.003849 0.390940 -0.167404 0.222708 -0.960405 113 82 58 255 1
0.007692 0.003846 0.390682 -0.154300 0.202424 -0.967066 115 85 61 255 1
0.008236 0.003843 0.390401 -0.143836 0.185810 -0.972001 118 87 63 255 1
0.008781 0.003842 0.390229 -0.129793 0.169881 -0.976880 119 89 65 255 1
0.009323 0.003839 0.389948 -0.110119 0.154300 -0.981868 122 91 67 255 1
0.009868 0.003838 0.389819 -0.091593 0.143439 -0.985412 123 92 68 255 1
0.010412 0.003836 0.389646 -0.074316 0.130464 -0.988664 124 94 70 255 1
0.010956 0.003835 0.389517 -0.047304 0.116688 -0.992041 123 94 71 255 1
0.011500 0.003833 0.389409 -0.033109 0.107312 -0.993674 124 96 73 255 1
0.012045 0.003833 0.389323 -0.017791 0.087507 -0.996005 125 98 73 255 1
0.012590 0.003832 0.389236 0.001734 0.080655 -0.996741 126 98 74 255 1
0.013135 0.003831 0.389172 0.015856 0.056165 -0.998296 128 99 74 255 1
0.013682 0.003831 0.389150 0.038361 0.048575 -0.998083 128 99 73 255 1
0.014228 0.003831 0.389129 0.041596 0.019581 -0.998943 129 99 73 255 1
0.014777 0.003831 0.389172 0.061092 0.009889 -0.998083 129 99 73 255 1
0.015328 0.003832 0.389258 0.070263 -0.025217 -0.997210 131 100 74 255 1
0.015880 0.003833 0.389366 0.086494 -0.036669 -0.995577 131 100 74 255 1
0.016436 0.003835 0.389560 0.107214 -0.049552 -0.993000 131 101 74 255 1
0.016994 0.003837 0.389797 0.128358 -0.057347 -0.990069 133 103 76 255 1
0.017551 0.003839 0.389991 0.141209 -0.063336 -0.987952 134 104 78 255 1
0.018116 0.003843 0.390358 0.152388 -0.066676 -0.986069 135 105 79 255 1
0.018685 0.003847 0.390768 0.169751 -0.061113 -0.983590 133 105 79 255 1
0.019261 0.003852 0.391307 0.183928 -0.065524 -0.980753 134 106 79 255 1
0.019848 0.003859 0.392041 0.204141 -0.051488 -0.977587 127 101 74 255 1
0.020452 0.003869 0.393054 0.227415 -0.033590 -0.973219 117 93 66 255 1
0.021099 0.003887 0.394802 0.266505 0.000147 -0.963834 93 85 64 255 1
0.035790 0.003796 0.385591 0.334586 -0.874324 -0.351581 111 106 82 255 2
0.036306 0.003793 0.385311 0.337317 -0.873256 -0.351627 115 108 83 255 2
0.036883 0.003797 0.385677 0.335699 -0.871404 -0.357716 114 107 82 255 2
0.037459 0.003800 0.386022 0.337573 -0.867410 -0.365574 112 103 80 255 2
0.038040 0.003804 0.386411 0.335993 -0.863536 -0.376050 109 103 80 255 2
0.053533 0.003863 0.392429 0.032181 -0.371019 -0.928067 114 103 80 255 2
0.054002 0.003857 0.391825 0.028180 -0.351894 -0.935616 119 103 79 255 2
0.054502 0.003854 0.391458 0.011348 -0.356129 -0.934368 122 101 77 255 2
0.055001 0.003850 0.391091 -0.001419 -0.347296 -0.937755 125 100 75 255 2
0.055508 0.003847 0.390789 -0.016027 -0.347152 -0.937672 127 101 76 255 2
0.056011 0.003844 0.390466 -0.028216 -0.350419 -0.936168 128 102 77 255 2
0.056538 0.003842 0.390315 -0.048254 -0.362348 -0.930793 126 100 75 255 2
0.057068 0.003841 0.390186 -0.067656 -0.370429 -0.926393 126 101 75 255 2
0.057598 0.003840 0.390056 -0.084882 -0.382468 -0.920061 127 101 76 255 2
0.058127 0.003839 0.389927 -0.096806 -0.389325 -0.915999 129 102 77 255 2
0.058656 0.003837 0.389797 -0.107582 -0.394084 -0.912756 129 101 76 255 2
0.059184 0.003836 0.389668 -0.115599 -0.397527 -0.910280 131 102 77 255 2
0.059709 0.003835 0.389517 -0.119481 -0.404048 -0.906901 131 102 77 255 2
0.060237 0.003833 0.389387 -0.123572 -0.410892 -0.903270 131 101 76 255 2
0.060775 0.003833 0.389323 -0.126164 -0.419068 -0.899147 131 101 75 255 2
0.061312 0.003832 0.389258 -0.127504 -0.423642 -0.896811 131 100 75 255 2
0.061846 0.003831 0.389172 -0.128839 -0.429176 -0.893985 132 101 75 255 2
0.062389 0.003831 0.389150 -0.135885 -0.442999 -0.886164 132 100 74 255 2
0.062933 0.003831 0.389129 -0.142002 -0.450502 -0.881410 131 99 73 255 2
0.063477 0.003831 0.389107 -0.144834 -0.454029 -0.879136 130 99 73 255 2
0.064017 0.003830 0.389064 -0.148255 -0.460834 -0.875016 129 98 72 255 2
0.064561 0.003830 0.389042 -0.154562 -0.467355 -0.870454 128 97 71 255 2
0.065104 0.003830 0.389021 -0.156450 -0.470908 -0.868199 126 97 70 255 2
0.065644 0.003829 0.388978 -0.163222 -0.477453 -0.863364 125 96 70 255 2
0.066191 0.003829 0.388978 -0.166335 -0.480936 -0.860833 124 95 69 255 2
0.066734 0.003829 0.388956 -0.168332 -0.482445 -0.859600 120 92 66 255 2
0.067270 0.003828 0.388891 -0.170493 -0.486076 -0.857124 118 90 65 255 2
0.067802 0.003828 0.388805 -0.176164 -0.490275 -0.853579 117 89 64 255 2
0.068334 0.003827 0.388719 -0.178484 -0.491931 -0.852143 117 88 63 255 2
0.068861 0.003826 0.388611 -0.178767 -0.492445 -0.851786 117 87 63 255 2
0.069396 0.003825 0.388546 -0.181410 -0.495635 -0.849374 116 86 62 255 2
0.069954 0.003826 0.388611 -0.186470 -0.500491 -0.845422 115 84 60 255 2
0.070520 0.003827 0.388719 -0.189257 -0.503851 -0.842803 114 83 59 255 2
0.071091 0.003828 0.388848 -0.191830 -0.503489 -0.842437 112 83 59 255 2
0.071669 0.003830 0.389021 -0.194423 -0.507441 -0.839466 107 81 58 255 2
0.072268 0.003832 0.389301 -0.198232 -0.511906 -0.835857 104 80 58 255 2
0.072937 0.003839 0.389948 -0.204937 -0.515646 -0.831931 102 80 57 255 2
0.073701 0.003850 0.391091 -0.213061 -0.522826 -0.825383 102 81 58 255 2
0.074533 0.003865 0.392580 -0.223353 -0.528345 -0.819124 90 78 57 255 2
-0.036224 0.004391 0.390272 0.116672 -0.690186 -0.714164 109 88 66 255 2
-0.035541 0.004374 0.388805 0.051646 -0.701932 -0.710369 117 85 63 255 2
-0.034909 0.004364 0.387856 0.056627 -0.704793 -0.707150 119 87 64 255 2
-0.034324 0.004359 0.387403 0.053978 -0.707043 -0.705107 123 93 69 255 2
-0.033775 0.004358 0.387360 0.112283 -0.701655 -0.703614 122 94 69 255 2
-0.033232 0.004358 0.387381 0.171483 -0.694251 -0.699006 124 95 69 255 2
-0.032689 0.004359 0.387403 0.185626 -0.691619 -0.698001 128 99 74 255 2
-0.032169 0.004362 0.387705 0.209298 -0.686122 -0.696729 128 99 73 255 2
-0.031677 0.004369 0.388352 0.230453 -0.680032 -0.696023 123 95 67 255 2
-0.031196 0.004378 0.389172 0.241991 -0.675157 -0.696853 113 84 57 255 2
-0.030744 0.004392 0.390380 0.256315 -0.667034 -0.699549 106 75 52 255 2
-0.015459 0.004580 0.407118 -0.257261 0.219263 -0.941138 56 53 40 255 1
-0.014775 0.004546 0.404077 -0.321873 0.288779 -0.901668 60 47 35 255 1
-0.014135 0.004523 0.402028 -0.404530 0.339631 -0.849121 60 44 32 255 1
-0.013537 0.004512 0.401057 -0.476588 0.359653 -0.802193 63 44 30 255 1
-0.012947 0.004503 0.400280 -0.520079 0.371436 -0.769124 66 46 31 255 1
-0.012361 0.004495 0.399525 -0.565889 0.375989 -0.733759 69 47 32 255 1
-0.011779 0.004487 0.398835 -0.584288 0.383038 -0.715465 70 48 31 255 1
-0.011203 0.004481 0.398296 -0.589778 0.391868 -0.706117 72 49 31 255 1
-0.010628 0.004475 0.397735 -0.579448 0.404593 -0.707492 74 49 31 255 1
-0.010056 0.004469 0.397239 -0.565975 0.417928 -0.710640 75 50 31 255 1
-0.009486 0.004464 0.396764 -0.551601 0.424900 -0.717772 78 51 32 255 1
-0.008918 0.004459 0.396333 -0.534318 0.432873 -0.726034 80 52 33 255 1
-0.008352 0.004455 0.395945 -0.516096 0.437318 -0.736477 81 52 33 255 1
-0.007788 0.004451 0.395578 -0.499043 0.445592 -0.743239 81 53 33 255 1
-0.007225 0.004446 0.395168 -0.480028 0.445399 -0.755773 82 54 34 255 1
-0.006663 0.004442 0.394802 -0.461682 0.451015 -0.763829 83 54 35 255 1
-0.006102 0.004438 0.394435 -0.442903 0.453196 -0.773595 83 54 34 255 1
-0.005542 0.004434 0.394068 -0.423919 0.455563 -0.782787 84 54 34 255 1
-0.004984 0.004430 0.393745 -0.405671 0.453689 -0.793472 86 55 35 255 1
-0.004426 0.004426 0.393421 -0.387663 0.454088 -0.802198 86 55 35 255 1
-0.003870 0.004423 0.393097 -0.368928 0.452230 -0.812022 88 56 36 255 1
-0.003314 0.004419 0.392796 -0.351893 0.452144 -0.819595 90 59 38 255 1
-0.002760 0.004416 0.392515 -0.334548 0.447471 -0.829366 93 61 40 255 1
-0.002207 0.004413 0.392256 -0.320108 0.435647 -0.841274 95 63 41 255 1
-0.001654 0.004411 0.392105 -0.308778 0.431075 -0.847839 96 64 42 255 1
-0.001103 0.004411 0.392084 -0.298783 0.425398 -0.854263 97 64 42 255 1
-0.000551 0.004411 0.392105 -0.290622 0.422057 -0.858724 96 64 41 255 1
0.000000 0.004412 0.392127 -0.279732 0.416305 -0.865124 97 65 42 255 1
0.000551 0.004411 0.392062 -0.271796 0.407352 -0.871889 97 64 42 255 1
0.001103 0.004410 0.391997 -0.262894 0.399274 -0.878332 97 65 42 255 1
0.001654 0.004410 0.391954 -0.255683 0.389958 -0.884623 97 65 42 255 1
0.002205 0.004410 0.391954 -0.246502 0.381488 -0.890901 98 67 44 255 1
0.002755 0.004408 0.391760 -0.236356 0.364168 -0.900843 97 67 43 255 1
0.003305 0.004406 0.391652 -0.231210 0.350139 -0.907714 99 70 46 255 1
0.003855 0.004406 0.391609 -0.222781 0.337864 -0.914449 101 72 49 255 1
0.004405 0.004405 0.391544 -0.215846 0.321337 -0.922037 102 74 50 255 1
0.004955 0.004405 0.391501 -0.208555 0.306534 -0.928731 105 76 52 255 1
0.005505 0.004404 0.391415 -0.201148 0.289920 -0.935674 107 77 53 255 1
0.006053 0.004402 0.391286 -0.196523 0.271856 -0.942058 108 78 54 255 1
0.006602 0.004401 0.391199 -0.188260 0.256092 -0.948143 110 80 55 255 1
0.007150 0.004400 0.391070 -0.176245 0.235011 -0.955880 112 81 57 255 1
0.007694 0.004397 0.390789 -0.163183 0.216827 -0.962475 113 83 59 255 1
0.008236 0.004393 0.390444 -0.146058 0.200008 -0.968847 117 86 62 255 1
0.008782 0.004391 0.390272 -0.133462 0.182644 -0.974079 118 88 64 255 1
0.009322 0.004387 0.389905 -0.113814 0.170113 -0.978830 120 90 66 255 1
0.009866 0.004385 0.389754 -0.094459 0.156926 -0.983083 121 91 68 255 1
0.010409 0.004383 0.389560 -0.082238 0.143687 -0.986200 122 93 70 255 1
0.010953 0.004381 0.389409 -0.058357 0.128503 -0.989991 122 93 71 255 1
0.011495 0.004379 0.389236 -0.040100 0.117423 -0.992272 125 95 73 255 1
0.012038 0.004377 0.389085 -0.029352 0.097789 -0.994774 126 97 73 255 1
0.012582 0.004376 0.388978 -0.020222 0.073569 -0.997085 127 98 74 255 1
0.013127 0.004376 0.388913 -0.004427 0.046644 -0.998902 126 98 72 255 1
0.013671 0.004375 0.388848 0.006659 0.020173 -0.999774 128 98 72 255 1
0.014218 0.004375 0.388848 0.001212 -0.022217 -0.999752 129 99 73 255 1
0.014766 0.004375 0.388870 0.016890 -0.043333 -0.998918 130 100 73 255 1
0.015315 0.004376 0.388934 0.027823 -0.079348 -0.996459 131 100 74 255 1
0.015865 0.004377 0.388999 0.030059 -0.113248 -0.993112 131 101 74 255 1
0.016421 0.004379 0.389215 0.048065 -0.117053 -0.991962 132 102 75 255 1
0.016975 0.004381 0.389366 0.059009 -0.126068 -0.990265 134 103 76 255 1
0.017533 0.004383 0.389603 0.069508 -0.149031 -0.986387 136 106 79 255 1
0.018096 0.004387 0.389927 0.082133 -0.157852 -0.984041 137 107 81 255 1
0.018662 0.004391 0.390293 0.082308 -0.175935 -0.980955 135 107 81 255 1
0.019236 0.004397 0.390811 0.113733 -0.147663 -0.982477 134 106 79 255 1
0.019821 0.004405 0.391501 0.116296 -0.144796 -0.982603 130 103 75 255 1
0.020418 0.004415 0.392386 0.154837 -0.107684 -0.982054 126 97 70 255 1
0.024281 0.005112 0.454357 -0.259035 -0.934578 -0.243854 98 90 68 255 1
0.031216 0.004306 0.382701 0.231124 -0.896810 -0.377245 107 100 77 255 4
0.031736 0.004303 0.382485 0.246074 -0.897949 -0.364878 118 107 81 255 4
0.032256 0.004301 0.382269 0.263269 -0.899742 -0.348070 126 111 84 255 4
0.032786 0.004300 0.382183 0.278163 -0.898194 -0.340401 132 115 88 255 4
0.033333 0.004301 0.382291 0.292691 -0.895856 -0.334325 134 116 87 255 4
0.033878 0.004302 0.382377 0.305375 -0.893695 -0.328719 136 116 87 255 4
0.034424 0.004303 0.382463 0.312598 -0.891118 -0.328924 137 115 86 255 4
0.034970 0.004304 0.382550 0.323704 -0.887627 -0.327619 139 115 86 255 4
0.035534 0.004307 0.382830 0.330004 -0.884206 -0.330571 141 115 85 255 4
0.036109 0.004311 0.383218 0.334903 -0.879935 -0.336979 141 116 85 255 4
0.036685 0.004316 0.383607 0.341134 -0.874765 -0.344113 141 115 84 255 4
0.037264 0.004320 0.384016 0.346166 -0.867963 -0.356102 141 115 84 255 4
0.037851 0.004326 0.384491 0.347371 -0.862754 -0.367408 140 114 84 255 2
0.038430 0.004330 0.384879 0.347639 -0.857289 -0.379742 139 115 85 255 2
0.039013 0.004335 0.385289 0.350616 -0.849090 -0.395113 137 115 85 255 2
0.039606 0.004340 0.385785 0.345283 -0.844509 -0.409371 135 115 86 255 2
0.040195 0.004345 0.386238 0.335042 -0.843066 -0.420698 130 112 84 255 2
0.040786 0.004351 0.386691 0.328443 -0.838185 -0.435397 121 107 81 255 2
0.041452 0.004363 0.387834 0.311193 -0.828713 -0.465181 117 106 81 255 2
0.042166 0.004381 0.389387 0.289890 -0.815599 -0.500762 113 104 81 255 2
0.051286 0.004412 0.392127 0.154328 -0.273725 -0.949346 110 94 71 255 2
0.051806 0.004409 0.391890 0.134245 -0.282209 -0.949914 122 100 76 255 2
0.052323 0.004406 0.391631 0.121225 -0.284306 -0.951039 127 100 75 255 2
0.052824 0.004402 0.391264 0.110544 -0.265001 -0.957891 128 100 75 255 2
0.053324 0.004398 0.390897 0.095687 -0.270942 -0.957828 130 101 75 255 2
0.053838 0.004395 0.390638 0.079039 -0.263897 -0.961307 129 100 74 255 2
0.054358 0.004393 0.390423 0.055665 -0.273299 -0.960317 130 101 74 255 2
0.054876 0.004390 0.390207 0.039288 -0.276483 -0.960215 131 101 75 255 2
0.055407 0.004389 0.390078 0.014514 -0.291947 -0.956324 131 101 76 255 2
0.055937 0.004387 0.389948 -0.004754 -0.300965 -0.953623 131 101 77 255 2
0.056466 0.004386 0.389819 -0.023241 -0.312511 -0.949630 129 101 76 255 2
0.056996 0.004384 0.389689 -0.043462 -0.329541 -0.943140 129 103 78 255 2
0.057528 0.004383 0.389582 -0.060787 -0.338612 -0.938960 129 102 77 255 2
0.058059 0.004382 0.389474 -0.078508 -0.352032 -0.932690 130 103 78 255 2
0.058597 0.004381 0.389409 -0.091375 -0.364995 -0.926515 131 102 78 255 2
0.059132 0.004380 0.389323 -0.099892 -0.373127 -0.922387 131 101 77 255 2
0.059670 0.004379 0.389258 -0.108465 -0.380708 -0.918312 130 101 76 255 2
0.060207 0.004379 0.389193 -0.114650 -0.388164 -0.914431 129 100 75 255 2
0.060744 0.004378 0.389129 -0.117765 -0.395536 -0.910869 129 100 75 255 2
0.061281 0.004377 0.389064 -0.118830 -0.404837 -0.906635 129 99 73 255 2
0.061818 0.004377 0.388999 -0.123744 -0.416687 -0.900588 130 100 74 255 2
0.062355 0.004376 0.388934 -0.127909 -0.424091 -0.896541 129 99 73 255 2
0.062898 0.004376 0.388913 -0.130684 -0.431821 -0.892442 128 98 72 255 2
0.063442 0.004375 0.388891 -0.137478 -0.439839 -0.887492 127 97 71 255 2
0.063996 0.004376 0.388934 -0.145903 -0.450753 -0.880644 125 95 69 255 2
0.064550 0.004376 0.388978 -0.149303 -0.457796 -0.876431 125 95 68 255 2
0.065097 0.004376 0.388978 -0.154271 -0.464013 -0.872291 123 94 68 255 2
0.065633 0.004376 0.388913 -0.158605 -0.467721 -0.869530 120 90 65 255 2
0.066169 0.004375 0.388848 -0.161772 -0.471784 -0.866747 119 89 64 255 2
0.066712 0.004375 0.388827 -0.166274 -0.477704 -0.862643 118 88 63 255 2
0.067255 0.004374 0.388805 -0.169306 -0.480151 -0.860692 114 85 60 255 2
0.067783 0.004373 0.388697 -0.172044 -0.483289 -0.858389 114 86 61 255 2
0.068315 0.004372 0.388611 -0.174804 -0.485436 -0.856618 114 85 60 255 2
0.068865 0.004372 0.388632 -0.176419 -0.488795 -0.854374 113 84 59 255 2
0.069423 0.004373 0.388697 -0.179609 -0.492418 -0.851625 112 83 59 255 2
0.069981 0.004374 0.388762 -0.182303 -0.494148 -0.850049 110 81 58 255 2
0.070552 0.004375 0.388891 -0.188963 -0.499434 -0.845493 107 79 57 255 2
0.071118 0.004377 0.388999 -0.191522 -0.501877 -0.843468 103 78 55 255 2
0.071713 0.004379 0.389258 -0.194371 -0.505329 -0.840751 99 76 53 255 2
0.072341 0.004384 0.389689 -0.198981 -0.508468 -0.837775 97 77 54 255 2
0.073030 0.004393 0.390444 -0.206791 -0.514170 -0.832386 96 78 56 255 2
0.073815 0.004407 0.391695 -0.214290 -0.521278 -0.826044 93 78 55 255 2
-0.036154 0.004930 0.389517 0.054431 -0.701757 -0.710334 112 88 67 255 2
-0.035492 0.004914 0.388266 0.059284 -0.705940 -0.705786 115 85 63 255 2
-0.034863 0.004903 0.387338 0.054834 -0.711098 -0.700951 117 87 63 255 2
-0.034276 0.004897 0.386864 0.053685 -0.712280 -0.699840 122 93 68 255 2
-0.033728 0.004896 0.386821 0.072336 -0.710845 -0.699619 123 95 70 255 2
-0.033184 0.004896 0.386821 0.141159 -0.703952 -0.696079 126 97 72 255 2
-0.032642 0.004896 0.386842 0.175925 -0.698443 -0.693706 130 101 76 255 2
-0.032128 0.004901 0.387209 0.205662 -0.692418 -0.691564 127 98 74 255 2
-0.031636 0.004909 0.387856 0.219651 -0.687549 -0.692120 122 92 67 255 2
-0.031167 0.004921 0.388805 0.238930 -0.681544 -0.691672 113 82 56 255 2
-0.030712 0.004936 0.389970 0.252728 -0.674295 -0.693870 106 76 52 255 2
-0.014840 0.005137 0.405846 -0.321871 0.280085 -0.904407 60 52 41 255 1
-0.014182 0.005105 0.403365 -0.403991 0.339333 -0.849497 60 44 33 255 1
-0.013563 0.005086 0.401833 -0.466038 0.369254 -0.804028 61 44 31 255 1
-0.012971 0.005076 0.401014 -0.514761 0.381474 -0.767789 62 44 30 255 1
-0.012383 0.005066 0.400237 -0.554988 0.384158 -0.737842 66 45 31 255 1
-0.011798 0.005056 0.399482 -0.578361 0.393466 -0.714621 69 47 31 255 1
-0.011216 0.005047 0.398770 -0.583302 0.401444 -0.706118 70 47 30 255 1
-0.010641 0.005040 0.398231 -0.571436 0.412699 -0.709324 70 46 29 255 1
-0.010068 0.005034 0.397735 -0.558852 0.425464 -0.711804 72 48 30 255 1
-0.009497 0.005028 0.397239 -0.546294 0.439865 -0.712799 74 48 30 255 1
-0.008928 0.005022 0.396786 -0.530494 0.446769 -0.720399 76 49 31 255 1
-0.008361 0.005016 0.396333 -0.514467 0.458629 -0.724557 77 49 31 255 1
-0.007795 0.005011 0.395923 -0.496088 0.463095 -0.734465 78 51 32 255 1
-0.007232 0.005007 0.395557 -0.477721 0.468295 -0.743292 80 52 33 255 1
-0.006669 0.005002 0.395190 -0.462369 0.473742 -0.749522 80 52 33 255 1
-0.006108 0.004997 0.394823 -0.442814 0.473642 -0.761301 81 52 33 255 1
-0.005548 0.004993 0.394478 -0.423821 0.475024 -0.771187 81 52 33 255 1
-0.004989 0.004989 0.394154 -0.406668 0.472471 -0.781916 83 53 34 255 1
-0.004431 0.004984 0.393809 -0.390112 0.470951 -0.791213 83 53 34 255 1
-0.003873 0.004980 0.393464 -0.373983 0.469080 -0.800063 85 54 35 255 1
-0.003317 0.004975 0.393097 -0.356999 0.463692 -0.810890 86 55 35 255 1
-0.002762 0.004971 0.392731 -0.339528 0.461108 -0.819817 88 56 36 255 1
-0.002207 0.004967 0.392407 -0.326054 0.454341 -0.829013 90 59 37 255 1
-0.001655 0.004966 0.392364 -0.315194 0.450503 -0.835284 94 62 40 255 1
-0.001104 0.004966 0.392386 -0.304781 0.445482 -0.841816 94 62 40 255 1
-0.000552 0.004966 0.392386 -0.295492 0.440384 -0.847789 94 62 40 255 1
0.000000 0.004966 0.392386 -0.288623 0.434799 -0.853022 94 62 40 255 1
0.000552 0.004966 0.392321 -0.280560 0.425820 -0.860211 94 63 40 255 1
0.001103 0.004965 0.392299 -0.272893 0.417846 -0.866565 95 63 40 255 1
0.001655 0.004966 0.392321 -0.263708 0.410936 -0.872691 96 64 41 255 1
0.002206 0.004965 0.392235 -0.256986 0.395863 -0.881618 96 65 42 255 1
0.002757 0.004962 0.392041 -0.248399 0.384172 -0.889219 96 65 41 255 1
0.003307 0.004960 0.391868 -0.241500 0.368179 -0.897843 97 66 43 255 1
0.003857 0.004959 0.391825 -0.233398 0.350192 -0.907133 99 69 46 255 1
0.004408 0.004959 0.391782 -0.227933 0.338825 -0.912822 100 71 48 255 1
0.004958 0.004958 0.391739 -0.218780 0.321603 -0.921253 103 74 50 255 1
0.005508 0.004957 0.391652 -0.210848 0.301678 -0.929803 105 75 51 255 1
0.006057 0.004956 0.391523 -0.203995 0.285305 -0.936476 107 77 53 255 1
0.006605 0.004954 0.391393 -0.193434 0.266966 -0.944093 108 78 54 255 1
0.007152 0.004951 0.391178 -0.180575 0.251869 -0.950765 110 79 55 255 1
0.007697 0.004948 0.390919 -0.166822 0.233376 -0.957970 114 83 58 255 1
0.008238 0.004943 0.390509 -0.156868 0.209131 -0.965224 116 84 60 255 1
0.008782 0.004940 0.390293 -0.135719 0.199139 -0.970528 117 87 63 255 1
0.009321 0.004935 0.389884 -0.117375 0.178914 -0.976838 118 89 65 255 1
0.009864 0.004932 0.389668 -0.099456 0.173562 -0.979788 119 90 67 255 1
0.010405 0.004929 0.389409 -0.083047 0.156032 -0.984255 121 92 70 255 1
0.010947 0.004926 0.389193 -0.065643 0.142255 -0.987651 123 95 72 255 1
0.011489 0.004924 0.389021 -0.053530 0.110047 -0.992484 125 96 72 255 1
0.012031 0.004922 0.388870 -0.055159 0.089345 -0.994472 126 96 72 255 1
0.012573 0.004920 0.388719 -0.044323 0.054140 -0.997549 127 97 72 255 1
0.013117 0.004919 0.388632 -0.042256 0.016545 -0.998970 128 99 73 255 1
0.013661 0.004918 0.388546 -0.049488 -0.037633 -0.998065 128 99 73 255 1
0.014207 0.004918 0.388546 -0.037906 -0.062690 -0.997313 129 100 73 255 1
0.014754 0.004918 0.388568 -0.028828 -0.101679 -0.994399 130 101 73 255 1
0.015302 0.004919 0.388611 -0.025149 -0.138418 -0.990054 132 102 75 255 1
0.015852 0.004919 0.388676 -0.042014 -0.203541 -0.978165 133 103 76 255 1
0.016404 0.004921 0.388805 -0.031190 -0.224999 -0.973860 133 103 76 255 1
0.016957 0.004923 0.388956 -0.034195 -0.257869 -0.965575 136 105 78 255 1
0.017515 0.004926 0.389193 -0.022227 -0.280205 -0.959683 138 107 80 255 1
0.018075 0.004930 0.389474 -0.027836 -0.299725 -0.953619 136 106 80 255 1
0.018640 0.004934 0.389840 -0.016736 -0.305652 -0.951996 135 106 80 255 1
0.019213 0.004941 0.390336 0.004158 -0.285171 -0.958467 135 106 77 255 1
0.019794 0.004948 0.390962 0.018166 -0.273674 -0.961651 133 103 75 255 1
0.020387 0.004959 0.391803 0.057366 -0.215328 -0.974855 136 103 75 255 1
0.021033 0.004981 0.393572 0.157296 -0.090648 -0.983382 116 102 77 255 1
0.028018 0.004849 0.383132 0.084420 -0.891691 -0.444703 106 96 74 255 4
0.028465 0.004834 0.381903 0.105727 -0.905788 -0.410329 116 100 76 255 4
0.028916 0.004819 0.380759 0.128806 -0.917799 -0.375571 122 103 78 255 4
0.029441 0.004818 0.380630 0.144627 -0.920580 -0.362787 128 107 81 255 4
0.029965 0.004816 0.380479 0.160139 -0.921345 -0.354230 129 111 84 255 4
0.030489 0.004814 0.380349 0.180185 -0.921598 -0.343789 132 111 84 255 4
0.031021 0.004814 0.380306 0.198995 -0.920573 -0.336076 133 110 83 255 4
0.031552 0.004813 0.380263 0.214660 -0.920751 -0.325790 134 112 84 255 4
0.032088 0.004813 0.380285 0.231550 -0.919385 -0.317988 134 110 82 255 4
0.032634 0.004815 0.380414 0.249790 -0.915063 -0.316646 135 111 83 255 4
0.033179 0.004816 0.380522 0.268493 -0.910737 -0.313799 137 111 83 255 4
0.033725 0.004818 0.380651 0.281762 -0.906486 -0.314474 138 111 83 255 4
0.034270 0.004819 0.380759 0.299367 -0.898396 -0.321349 138 110 81 255 4
0.034818 0.004821 0.380889 0.309699 -0.893918 -0.324033 139 110 81 255 4
0.035393 0.004826 0.381320 0.325112 -0.886863 -0.328293 140 110 80 255 4
0.035970 0.004832 0.381752 0.339802 -0.876913 -0.339939 140 111 81 255 4
0.036546 0.004837 0.382161 0.346876 -0.870232 -0.349820 139 110 80 255 4
0.037126 0.004842 0.382593 0.353214 -0.863948 -0.358935 138 110 80 255 4
0.037713 0.004849 0.383089 0.354434 -0.859864 -0.367437 137 111 81 255 4
0.038301 0.004855 0.383585 0.355400 -0.855662 -0.376209 135 110 80 255 4
0.038882 0.004860 0.383995 0.354812 -0.850158 -0.389024 134 111 81 255 4
0.039495 0.004869 0.384707 0.351716 -0.845556 -0.401660 134 111 81 255 2
0.040094 0.004876 0.385267 0.342059 -0.844215 -0.412671 134 110 80 255 2
0.040691 0.004883 0.385785 0.337546 -0.836768 -0.431141 133 107 78 255 2
0.041312 0.004892 0.386519 0.321357 -0.834221 -0.448113 133 105 77 255 2
0.041932 0.004901 0.387230 0.312129 -0.825036 -0.471054 138 107 79 255 2
0.042586 0.004914 0.388223 0.298726 -0.805102 -0.512420 139 108 80 255 2
0.043189 0.004920 0.388740 0.292868 -0.775588 -0.559188 137 110 82 255 2
0.043823 0.004930 0.389517 0.298455 -0.711058 -0.636648 130 109 83 255 2
0.044504 0.004945 0.390682 0.383820 -0.125054 -0.914901 118 106 82 255 2
0.049029 0.004958 0.391717 0.265860 -0.175128 -0.947971 117 100 77 255 2
0.049531 0.004953 0.391329 0.254768 -0.151174 -0.955113 126 100 76 255 2
0.050053 0.004950 0.391113 0.239248 -0.153661 -0.958723 132 101 75 255 2
0.050587 0.004949 0.390984 0.225402 -0.166975 -0.959851 134 100 75 255 2
0.051125 0.004948 0.390897 0.200121 -0.177718 -0.963519 136 101 75 255 2
0.051661 0.004946 0.390789 0.175748 -0.194167 -0.965097 136 102 76 255 2
0.052196 0.004945 0.390682 0.163037 -0.179539 -0.970147 133 101 76 255 2
0.052725 0.004943 0.390531 0.142443 -0.197212 -0.969958 132 101 76 255 2
0.053251 0.004941 0.390358 0.123611 -0.207696 -0.970352 133 101 76 255 2
0.053773 0.004938 0.390164 0.108712 -0.204194 -0.972875 134 103 78 255 2
0.054294 0.004936 0.389970 0.080786 -0.223849 -0.971270 136 104 79 255 2
0.054816 0.004933 0.389776 0.064809 -0.229608 -0.971123 135 104 78 255 2
0.055342 0.004931 0.389625 0.042439 -0.240932 -0.969614 134 103 77 255 2
0.055881 0.004931 0.389560 0.018467 -0.259867 -0.965468 132 102 77 255 2
0.056416 0.004930 0.389474 -0.002324 -0.271812 -0.962348 129 101 76 255 2
0.056955 0.004929 0.389409 -0.025203 -0.294306 -0.955379 128 101 76 255 2
0.057489 0.004928 0.389323 -0.044900 -0.307624 -0.950448 128 101 76 255 2
0.058027 0.004927 0.389258 -0.063768 -0.321530 -0.944750 128 101 76 255 2
0.058562 0.004926 0.389172 -0.075398 -0.329155 -0.941261 128 100 75 255 2
0.059099 0.004925 0.389107 -0.087104 -0.339783 -0.936462 128 99 74 255 2
0.059633 0.004924 0.389021 -0.093995 -0.350721 -0.931751 127 98 73 255 2
0.060170 0.004923 0.388956 -0.102314 -0.362024 -0.926537 126 97 72 255 2
0.060707 0.004922 0.388891 -0.108007 -0.372243 -0.921829 126 98 72 255 2
0.061247 0.004922 0.388848 -0.112617 -0.383372 -0.916702 126 97 72 255 2
0.061794 0.004922 0.388848 -0.116705 -0.397378 -0.910204 126 97 71 255 2
0.062341 0.004922 0.388848 -0.121766 -0.408012 -0.904820 125 96 70 255 2
0.062891 0.004922 0.388870 -0.126187 -0.421050 -0.898217 125 95 70 255 2
0.063445 0.004922 0.388913 -0.133406 -0.431203 -0.892338 124 94 68 255 2
0.063999 0.004923 0.388956 -0.138858 -0.439735 -0.887328 122 92 66 255 2
0.064546 0.004923 0.388956 -0.147219 -0.451299 -0.880146 121 91 65 255 2
0.065097 0.004923 0.388978 -0.150499 -0.455573 -0.877384 118 89 63 255 2
0.065633 0.004922 0.388913 -0.154698 -0.459764 -0.874463 117 87 62 255 2
0.066169 0.004922 0.388848 -0.159515 -0.464549 -0.871062 117 87 62 255 2
0.066705 0.004921 0.388783 -0.162245 -0.468814 -0.868268 113 84 60 255 2
0.067240 0.004920 0.388719 -0.163770 -0.472965 -0.865727 112 84 59 255 2
0.067787 0.004920 0.388719 -0.169205 -0.478498 -0.861632 111 83 58 255 2
0.068337 0.004920 0.388740 -0.173399 -0.482137 -0.858764 110 82 57 255 2
0.068896 0.004921 0.388805 -0.176244 -0.484343 -0.856942 109 81 56 255 2
0.069450 0.004922 0.388848 -0.178280 -0.488115 -0.854377 107 80 56 255 2
0.070013 0.004923 0.388934 -0.181896 -0.491002 -0.851957 103 77 54 255 2
0.070575 0.004924 0.389021 -0.184607 -0.492779 -0.850347 98 73 51 255 2
0.071154 0.004926 0.389193 -0.189745 -0.498409 -0.845923 93 72 50 255 2
0.071753 0.004930 0.389474 -0.192721 -0.501642 -0.843335 92 72 49 255 2
0.072453 0.004940 0.390293 -0.199979 -0.507721 -0.837990 92 74 52 255 2
0.073179 0.004952 0.391242 -0.208327 -0.513711 -0.832286 91 75 56 255 2
-0.036102 0.005470 0.388956 0.062506 -0.705947 -0.705501 111 86 65 255 2
-0.035441 0.005452 0.387705 0.062482 -0.711349 -0.700056 114 85 63 255 2
-0.034806 0.005438 0.386713 0.065063 -0.715068 -0.696021 117 87 64 255 2
-0.034217 0.005431 0.386195 0.074144 -0.715040 -0.695141 121 93 68 255 2
-0.033666 0.005430 0.386109 0.076041 -0.715117 -0.694856 124 97 72 255 2
-0.033136 0.005432 0.386260 0.109213 -0.711562 -0.694084 127 99 74 255 2
-0.032594 0.005432 0.386281 0.150213 -0.707558 -0.690506 129 101 77 255 2
-0.032087 0.005438 0.386713 0.194225 -0.698884 -0.688359 123 97 73 255 2
-0.031598 0.005448 0.387381 0.219963 -0.692831 -0.686733 119 90 65 255 2
-0.031129 0.005461 0.388330 0.238643 -0.685903 -0.687449 116 83 57 255 2
-0.030683 0.005479 0.389603 0.249875 -0.678630 -0.690669 104 77 54 255 2
-0.014228 0.005691 0.404681 -0.397741 0.338540 -0.852756 60 49 37 255 1
-0.013605 0.005669 0.403085 -0.467295 0.371473 -0.802274 62 46 33 255 1
-0.012999 0.005652 0.401877 -0.516050 0.388541 -0.763366 62 45 31 255 1
-0.012406 0.005639 0.400971 -0.550617 0.390872 -0.737590 64 44 30 255 1
-0.011820 0.005628 0.400216 -0.570611 0.398124 -0.718262 67 46 30 255 1
-0.011235 0.005617 0.399439 -0.576505 0.404909 -0.709712 69 47 31 255 1
-0.010655 0.005608 0.398749 -0.566129 0.419289 -0.709715 69 46 29 255 1
-0.010081 0.005600 0.398231 -0.555627 0.430541 -0.711276 69 45 28 255 1
-0.009508 0.005593 0.397714 -0.542146 0.442595 -0.714274 70 46 29 255 1
-0.008938 0.005587 0.397239 -0.528312 0.451477 -0.719066 72 46 29 255 1
-0.008371 0.005580 0.396808 -0.513375 0.463591 -0.722170 72 46 29 255 1
-0.007805 0.005575 0.396398 -0.497799 0.473132 -0.726872 74 47 30 255 1
-0.007240 0.005569 0.395988 -0.480212 0.476764 -0.736269 75 49 31 255 1
-0.006676 0.005563 0.395578 -0.459124 0.479725 -0.747709 77 49 31 255 1
-0.006113 0.005558 0.395190 -0.445097 0.487588 -0.751097 78 50 32 255 1
-0.005553 0.005553 0.394866 -0.428867 0.489138 -0.759485 78 50 31 255 1
-0.004993 0.005548 0.394521 -0.410171 0.492485 -0.767606 80 51 32 255 1
-0.004435 0.005544 0.394198 -0.394406 0.491859 -0.776221 81 52 33 255 1
-0.003877 0.005539 0.393831 -0.376702 0.487254 -0.787832 82 52 33 255 1
-0.003320 0.005533 0.393464 -0.361497 0.485016 -0.796291 83 53 33 255 1
-0.002764 0.005529 0.393141 -0.345754 0.479007 -0.806850 84 54 34 255 1
-0.002210 0.005525 0.392882 -0.333002 0.472777 -0.815838 86 56 35 255 1
-0.001657 0.005523 0.392752 -0.321481 0.468685 -0.822791 89 58 37 255 1
-0.001104 0.005522 0.392666 -0.312353 0.461540 -0.830311 91 59 38 255 1
-0.000552 0.005523 0.392688 -0.302871 0.457885 -0.835829 92 61 39 255 1
0.000000 0.005522 0.392645 -0.296865 0.449854 -0.842319 92 60 39 255 1
0.000552 0.005522 0.392645 -0.288476 0.440447 -0.850170 91 60 38 255 1
0.001104 0.005522 0.392666 -0.281816 0.436970 -0.854188 93 61 39 255 1
0.001657 0.005523 0.392688 -0.273485 0.423739 -0.863511 94 62 40 255 1
0.002208 0.005520 0.392515 -0.265263 0.413091 -0.871201 94 62 40 255 1
0.002759 0.005517 0.392321 -0.259184 0.396260 -0.880796 94 63 40 255 1
0.003309 0.005514 0.392105 -0.247906 0.386023 -0.888554 95 64 41 255 1
0.003859 0.005513 0.392041 -0.242215 0.371811 -0.896152 96 66 43 255 1
0.004410 0.005513 0.391997 -0.234837 0.354774 -0.904979 98 69 46 255 1
0.004961 0.005512 0.391954 -0.228841 0.334547 -0.914172 102 72 49 255 1
0.005511 0.005511 0.391890 -0.221410 0.319250 -0.921443 104 74 51 255 1
0.006060 0.005509 0.391760 -0.211604 0.300656 -0.929962 105 76 52 255 1
0.006608 0.005507 0.391566 -0.198892 0.280469 -0.939031 107 77 53 255 1
0.007154 0.005503 0.391307 -0.186816 0.263358 -0.946437 110 78 54 255 1
0.007699 0.005499 0.391048 -0.173387 0.241994 -0.954660 113 81 56 255 1
0.008239 0.005492 0.390552 -0.158178 0.226965 -0.960972 116 84 59 255 1
0.008781 0.005488 0.390250 -0.138353 0.211520 -0.967532 117 86 62 255 1
0.009320 0.005482 0.389819 -0.121139 0.195912 -0.973110 117 89 65 255 1
0.009859 0.005477 0.389474 -0.103117 0.181436 -0.977981 118 90 67 255 1
0.010400 0.005474 0.389215 -0.091273 0.163342 -0.982338 121 93 70 255 1
0.010941 0.005471 0.388999 -0.080467 0.145366 -0.986100 122 93 71 255 1
0.011482 0.005468 0.388783 -0.078352 0.107928 -0.991066 124 95 71 255 1
0.012024 0.005465 0.388632 -0.078177 0.070142 -0.994469 125 95 71 255 1
0.012566 0.005463 0.388481 -0.080768 0.023980 -0.996444 126 96 71 255 1
0.013104 0.005460 0.388244 -0.099825 -0.068246 -0.992662 127 98 72 255 1
0.013643 0.005457 0.388050 -0.122919 -0.145326 -0.981719 128 99 73 255 1
0.014183 0.005455 0.387899 -0.142814 -0.248128 -0.958142 129 101 74 255 1
0.014727 0.005455 0.387856 -0.165426 -0.318612 -0.933338 130 102 75 255 1
0.015269 0.005453 0.387748 -0.182229 -0.403576 -0.896615 131 102 76 255 1
0.015816 0.005454 0.387791 -0.203590 -0.478312 -0.854265 131 103 76 255 1
0.016366 0.005455 0.387921 -0.213857 -0.520606 -0.826580 133 104 77 255 1
0.016914 0.005456 0.387964 -0.216142 -0.542756 -0.811603 136 106 78 255 1
0.017467 0.005459 0.388136 -0.223775 -0.565211 -0.794016 139 107 79 255 1
0.018031 0.005464 0.388525 -0.200147 -0.553907 -0.808164 138 106 79 255 1
0.018596 0.005469 0.388913 -0.195769 -0.553890 -0.809246 137 106 78 255 1
0.019164 0.005475 0.389344 -0.193761 -0.552251 -0.810848 137 105 77 255 1
0.019747 0.005485 0.390035 -0.148483 -0.494676 -0.856299 137 105 76 255 1
0.020338 0.005497 0.390854 -0.109095 -0.430010 -0.896208 142 109 79 255 1
0.020938 0.005510 0.391803 -0.052669 -0.340779 -0.938667 139 114 83 255 1
0.021896 0.005340 0.379745 -0.100025 -0.902301 -0.419342 106 93 70 255 4
0.022419 0.005338 0.379551 -0.081574 -0.909286 -0.408098 115 97 73 255 4
0.022941 0.005335 0.379357 -0.065477 -0.913462 -0.401621 119 99 75 255 4
0.023457 0.005331 0.379077 -0.050719 -0.919308 -0.390258 123 102 77 255 4
0.023971 0.005327 0.378775 -0.033712 -0.924450 -0.379810 125 104 79 255 4
0.024488 0.005324 0.378538 -0.020918 -0.928262 -0.371338 128 105 79 255 4
0.025016 0.005323 0.378473 -0.004525 -0.931855 -0.362804 129 105 78 255 4
0.025547 0.005322 0.378451 0.007749 -0.934535 -0.355787 129 106 79 255 4
0.026078 0.005322 0.378430 0.021965 -0.936281 -0.350565 132 108 80 255 4
0.026608 0.005322 0.378408 0.036649 -0.938917 -0.342188 137 108 81 255 4
0.027141 0.005322 0.378408 0.049066 -0.940300 -0.336792 140 110 82 255 4
0.027673 0.005322 0.378408 0.065951 -0.943064 -0.326006 142 109 82 255 4
0.028205 0.005322 0.378408 0.084373 -0.944795 -0.316613 140 108 81 255 4
0.028739 0.005322 0.378430 0.093844 -0.945352 -0.312253 137 107 79 255 4
0.029273 0.005322 0.378451 0.109054 -0.947140 -0.301716 138 108 80 255 4
0.029807 0.005323 0.378473 0.121269 -0.947575 -0.295628 137 110 82 255 4
0.030341 0.005323 0.378494 0.135600 -0.948756 -0.285437 135 108 81 255 4
0.030875 0.005323 0.378516 0.146193 -0.950374 -0.274622 134 108 82 255 4
0.031409 0.005324 0.378538 0.158231 -0.950897 -0.266005 132 108 82 255 4
0.031950 0.005325 0.378645 0.168482 -0.952191 -0.254846 132 108 82 255 4
0.032499 0.005328 0.378840 0.186850 -0.949962 -0.250319 132 107 80 255 4
0.033049 0.005330 0.379034 0.194059 -0.950676 -0.241985 134 109 81 255 4
0.033599 0.005333 0.379228 0.204418 -0.949350 -0.238638 133 108 80 255 4
0.034150 0.005336 0.379422 0.216335 -0.946327 -0.240133 134 106 78 255 4
0.034703 0.005339 0.379638 0.232672 -0.940405 -0.247995 136 107 79 255 4
0.035273 0.005344 0.380026 0.245045 -0.936025 -0.252608 137 107 78 255 4
0.035848 0.005351 0.380457 0.254582 -0.932608 -0.255795 136 107 77 255 4
0.036425 0.005357 0.380889 0.288172 -0.912481 -0.290406 136 107 78 255 4
0.037006 0.005363 0.381363 0.316517 -0.893039 -0.319841 136 108 78 255 4
0.037592 0.005370 0.381859 0.334972 -0.877622 -0.342889 134 109 78 255 4
0.038176 0.005377 0.382334 0.342696 -0.867909 -0.359575 132 109 78 255 4
0.038773 0.005385 0.382916 0.345264 -0.862593 -0.369766 133 109 79 255 4
0.039382 0.005395 0.383607 0.354278 -0.847698 -0.394836 131 108 79 255 4
0.039996 0.005405 0.384318 0.346882 -0.847115 -0.402577 131 107 78 255 4
0.040607 0.005414 0.384987 0.339464 -0.841730 -0.419828 130 104 76 255 2
0.041226 0.005425 0.385720 0.325570 -0.840906 -0.432298 131 103 75 255 2
0.041846 0.005435 0.386432 0.312115 -0.837648 -0.448251 133 104 76 255 2
0.042467 0.005445 0.387144 0.305902 -0.819680 -0.484301 133 103 74 255 2
0.043086 0.005454 0.387813 0.307834 -0.780281 -0.544425 134 103 74 255 2
0.043700 0.005462 0.388417 0.403380 0.386325 -0.829480 136 105 77 255 2
0.044312 0.005471 0.388999 0.372520 0.497232 -0.783575 138 108 79 255 2
0.044899 0.005475 0.389344 0.360747 0.489480 -0.793896 136 108 80 255 2
0.045484 0.005480 0.389668 0.391509 0.306611 -0.867589 134 109 82 255 2
0.046091 0.005487 0.390164 0.387291 0.196850 -0.900697 127 106 80 255 2
0.046645 0.005488 0.390207 0.383903 0.142034 -0.912384 128 106 81 255 2
0.047217 0.005490 0.390401 0.371126 0.073100 -0.925701 126 104 79 255 2
0.047787 0.005493 0.390574 0.348363 0.031982 -0.936814 129 103 78 255 2
0.048347 0.005494 0.390660 0.325649 -0.026820 -0.945110 131 103 77 255 2
0.048894 0.005494 0.390638 0.308543 -0.042330 -0.950268 132 103 77 255 2
0.049438 0.005493 0.390595 0.285336 -0.062227 -0.956405 133 104 78 255 2
0.049984 0.005493 0.390574 0.265232 -0.089709 -0.960002 136 105 79 255 2
0.050525 0.005492 0.390509 0.237217 -0.108634 -0.965364 137 105 80 255 2
0.051057 0.005490 0.390380 0.217795 -0.120522 -0.968525 137 104 79 255 2
0.051589 0.005488 0.390250 0.203283 -0.120719 -0.971650 137 104 79 255 2
0.052124 0.005487 0.390142 0.182838 -0.127012 -0.974904 136 104 79 255 2
0.052658 0.005485 0.390035 0.165309 -0.139327 -0.976351 136 104 78 255 2
0.053192 0.005484 0.389927 0.142018 -0.156153 -0.977470 136 104 78 255 2
0.053725 0.005482 0.389819 0.126901 -0.162095 -0.978581 135 103 78 255 2
0.054255 0.005480 0.389689 0.102300 -0.179711 -0.978386 134 103 77 255 2
0.054785 0.005479 0.389560 0.080146 -0.193469 -0.977827 132 101 75 255 2
0.055315 0.005477 0.389431 0.057210 -0.209567 -0.976119 131 100 75 255 2
0.055847 0.005475 0.389323 0.032879 -0.229883 -0.972663 128 99 74 255 2
0.056385 0.005474 0.389258 0.009633 -0.248267 -0.968644 127 99 74 255 2
0.056920 0.005473 0.389172 -0.010348 -0.265245 -0.964126 126 98 74 255 2
0.057458 0.005472 0.389107 -0.030497 -0.276777 -0.960450 127 99 74 255 2
0.057992 0.005471 0.389021 -0.047910 -0.292525 -0.955057 125 97 72 255 2
0.058526 0.005470 0.388934 -0.061801 -0.301649 -0.951414 125 97 72 255 2
0.059070 0.005469 0.388913 -0.076972 -0.315696 -0.945733 125 96 71 255 2
0.059613 0.005469 0.388891 -0.089328 -0.333236 -0.938602 122 95 69 255 2
0.060160 0.005469 0.388891 -0.095055 -0.346130 -0.933359 122 95 69 255 2
0.060707 0.005469 0.388891 -0.102535 -0.358426 -0.927910 121 94 69 255 2
0.061254 0.005469 0.388891 -0.105759 -0.368002 -0.923791 121 93 68 255 2
0.061798 0.005469 0.388870 -0.107592 -0.376478 -0.920157 121 93 68 255 2
0.062345 0.005469 0.388870 -0.116548 -0.392272 -0.912436 120 91 67 255 2
0.062895 0.005469 0.388891 -0.122264 -0.405842 -0.905728 120 91 66 255 2
0.063449 0.005470 0.388934 -0.130638 -0.419294 -0.898402 119 90 65 255 2
0.063996 0.005470 0.388934 -0.133772 -0.428136 -0.893759 116 87 62 255 2
0.064546 0.005470 0.388956 -0.140756 -0.436529 -0.888611 115 86 61 255 2
0.065097 0.005470 0.388978 -0.147497 -0.448129 -0.881717 114 86 61 255 2
0.065640 0.005470 0.388956 -0.149738 -0.451611 -0.879560 112 84 59 255 2
0.066184 0.005470 0.388934 -0.154089 -0.457865 -0.875566 111 83 58 255 2
0.066727 0.005469 0.388913 -0.160093 -0.464800 -0.870822 110 81 57 255 2
0.067270 0.005469 0.388891 -0.162022 -0.466657 -0.869471 108 81 56 255 2
0.067813 0.005469 0.388870 -0.165317 -0.471858 -0.866037 107 79 55 255 2
0.068368 0.005469 0.388913 -0.171826 -0.477007 -0.861940 105 78 54 255 2
0.068926 0.005470 0.388978 -0.175100 -0.480715 -0.859217 104 76 53 255 2
0.069492 0.005472 0.389085 -0.176813 -0.484367 -0.856811 101 75 53 255 2
0.070055 0.005473 0.389172 -0.181051 -0.487600 -0.854088 96 72 50 255 2
0.070638 0.005476 0.389366 -0.185675 -0.491337 -0.850948 91 69 48 255 2
0.071248 0.005481 0.389711 -0.189154 -0.496542 -0.847152 89 69 47 255 2
0.071936 0.005491 0.390466 -0.198353 -0.503553 -0.840887 91 72 50 255 2
0.072653 0.005504 0.391372 -0.205617 -0.509243 -0.835699 90 76 55 255 2
-0.036046 0.006008 0.388352 0.065750 -0.711796 -0.699302 111 86 65 255 2
-0.035382 0.005988 0.387058 0.070423 -0.715261 -0.695300 114 86 64 255 2
-0.034750 0.005973 0.386087 0.067031 -0.718053 -0.692753 118 88 65 255 2
-0.034161 0.005965 0.385569 0.071455 -0.719053 -0.691272 121 92 69 255 2
-0.033604 0.005962 0.385397 0.074232 -0.719808 -0.690193 125 98 73 255 2
-0.033086 0.005966 0.385677 0.077742 -0.718155 -0.691527 128 100 74 255 2
-0.032547 0.005967 0.385720 0.092732 -0.717455 -0.690405 128 100 75 255 2
-0.032048 0.005975 0.386238 0.171084 -0.708241 -0.684927 123 98 72 255 2
-0.031563 0.005986 0.386950 0.207143 -0.700624 -0.682802 119 91 64 255 2
-0.031094 0.006001 0.387899 0.230783 -0.692409 -0.683600 117 81 55 255 2
-0.030676 0.006026 0.389517 0.254093 -0.682462 -0.685334 97 78 56 255 2
-0.013648 0.006255 0.404357 -0.463409 0.370884 -0.804796 63 50 36 255 1
-0.013039 0.006236 0.403128 -0.519693 0.389214 -0.760547 60 46 31 255 1
-0.012436 0.006218 0.401941 -0.550658 0.397314 -0.734110 60 44 30 255 1
-0.011841 0.006202 0.400928 -0.569442 0.402079 -0.716986 63 44 29 255 1
-0.011256 0.006191 0.400173 -0.573252 0.408577 -0.710244 66 45 29 255 1
-0.010674 0.006180 0.399482 -0.563634 0.418338 -0.712257 66 44 29 255 1
-0.010096 0.006170 0.398835 -0.552419 0.433240 -0.712135 66 44 28 255 1
-0.009520 0.006160 0.398210 -0.539193 0.443319 -0.716058 67 44 28 255 1
-0.008949 0.006153 0.397714 -0.525702 0.456851 -0.717583 68 45 29 255 1
-0.008381 0.006146 0.397282 -0.511024 0.466294 -0.722097 70 46 29 255 1
-0.007814 0.006139 0.396872 -0.495947 0.475638 -0.726502 70 46 29 255 1
-0.007248 0.006133 0.396462 -0.480194 0.482736 -0.732380 71 46 29 255 1
-0.006684 0.006127 0.396053 -0.465106 0.490550 -0.736911 73 47 30 255 1
-0.006120 0.006120 0.395643 -0.443873 0.490070 -0.750206 73 47 30 255 1
-0.005559 0.006115 0.395276 -0.427991 0.498281 -0.754016 74 48 30 255 1
-0.004998 0.006109 0.394909 -0.412331 0.500627 -0.761154 76 48 30 255 1
-0.004439 0.006104 0.394564 -0.396546 0.497986 -0.771208 77 49 31 255 1
-0.003881 0.006098 0.394219 -0.379982 0.501601 -0.777181 77 49 31 255 1
-0.003324 0.006093 0.393896 -0.365030 0.495508 -0.788178 79 50 31 255 1
-0.002767 0.006088 0.393572 -0.351736 0.492524 -0.796054 81 51 32 255 1
-0.002213 0.006085 0.393378 -0.339797 0.488205 -0.803862 81 52 32 255 1
-0.001659 0.006083 0.393227 -0.330257 0.482925 -0.810995 83 54 34 255 1
-0.001106 0.006081 0.393097 -0.320717 0.478990 -0.817135 86 56 35 255 1
-0.000553 0.006079 0.392968 -0.310334 0.469902 -0.826368 87 57 36 255 1
0.000000 0.006079 0.392990 -0.303546 0.465583 -0.831319 88 58 36 255 1
0.000553 0.006080 0.393011 -0.295566 0.457420 -0.838694 90 59 38 255 1
0.001105 0.006080 0.393033 -0.288766 0.453666 -0.843090 92 60 38 255 1
0.001658 0.006079 0.392990 -0.281510 0.443005 -0.851175 93 60 39 255 1
0.002210 0.006076 0.392796 -0.271601 0.433510 -0.859245 93 60 38 255 1
0.002760 0.006073 0.392580 -0.265535 0.416086 -0.869692 94 61 39 255 1
0.003311 0.006070 0.392386 -0.258675 0.397486 -0.880393 95 63 40 255 1
0.003862 0.006068 0.392278 -0.249950 0.382546 -0.889485 96 65 42 255 1
0.004413 0.006068 0.392235 -0.240771 0.367863 -0.898168 98 67 45 255 1
0.004964 0.006067 0.392192 -0.237857 0.350529 -0.905844 101 71 48 255 1
0.005515 0.006066 0.392127 -0.228865 0.331903 -0.915129 103 73 50 255 1
0.006063 0.006063 0.391933 -0.217864 0.313524 -0.924250 102 73 50 255 1
0.006610 0.006059 0.391674 -0.206729 0.296823 -0.932287 104 74 51 255 1
0.007156 0.006055 0.391437 -0.192101 0.277508 -0.941321 107 77 53 255 1
0.007701 0.006050 0.391113 -0.179544 0.256017 -0.949852 110 79 55 255 1
0.008240 0.006043 0.390617 -0.161699 0.236815 -0.958004 113 82 58 255 1
0.008781 0.006037 0.390229 -0.143488 0.224298 -0.963899 115 85 61 255 1
0.009317 0.006028 0.389689 -0.122493 0.209486 -0.970109 116 88 64 255 1
0.009855 0.006023 0.389323 -0.114582 0.189141 -0.975242 117 89 66 255 1
0.010395 0.006018 0.389042 -0.098940 0.166220 -0.981113 119 91 68 255 1
0.010936 0.006015 0.388827 -0.101902 0.126191 -0.986758 121 92 70 255 1
0.011475 0.006011 0.388546 -0.108831 0.079751 -0.990856 122 93 69 255 1
0.012009 0.006005 0.388158 -0.134861 -0.006612 -0.990842 124 94 69 255 1
0.012545 0.006000 0.387834 -0.174990 -0.143862 -0.974003 126 96 71 255 1
0.013079 0.005995 0.387511 -0.231363 -0.288828 -0.929004 128 98 72 255 1
0.013617 0.005992 0.387317 -0.255124 -0.397792 -0.881291 130 100 74 255 1
0.014156 0.005989 0.387144 -0.281792 -0.508235 -0.813812 131 103 75 255 1
0.014696 0.005987 0.387036 -0.290988 -0.583399 -0.758269 132 104 77 255 1
0.015237 0.005986 0.386950 -0.302592 -0.631078 -0.714268 132 104 77 255 1
0.015778 0.005985 0.386864 -0.308644 -0.668917 -0.676232 137 106 79 255 1
0.016320 0.005984 0.386821 -0.313425 -0.689676 -0.652772 139 107 79 255 1
0.016866 0.005985 0.386864 -0.314481 -0.703185 -0.637677 142 108 80 255 1
0.017409 0.005984 0.386842 -0.309806 -0.721504 -0.619235 144 111 82 255 1
0.017981 0.005994 0.387446 -0.299952 -0.703592 -0.644195 142 112 82 255 1
0.018550 0.006001 0.387942 -0.287215 -0.686468 -0.668034 142 112 82 255 1
0.019111 0.006006 0.388266 -0.279462 -0.684858 -0.672956 142 112 81 255 1
0.019681 0.006014 0.388740 -0.268952 -0.668873 -0.693018 139 112 81 255 1
0.019733 0.005867 0.379228 -0.137926 -0.902186 -0.408701 136 114 84 255 4
0.020233 0.005857 0.378602 -0.121467 -0.910010 -0.396393 135 114 84 255 4
0.020732 0.005848 0.377998 -0.109674 -0.919324 -0.377908 131 106 77 255 4
0.021244 0.005842 0.377653 -0.095491 -0.924332 -0.369447 129 100 74 255 4
0.021757 0.005837 0.377330 -0.085880 -0.929267 -0.359288 132 102 75 255 4
0.022263 0.005831 0.376920 -0.075973 -0.934920 -0.346630 131 104 76 255 4
0.022779 0.005827 0.376682 -0.064935 -0.939510 -0.336309 134 106 76 255 4
