ply
format ascii 1.0
comment Created by labeled_geometry.py
element vertex 648
property float x
property float y
property float z
property float nx
property float ny
property float nz
property uchar red
property uchar green
property uchar blue
property uchar alpha
property uchar label
end_header
-0.085227 0.023813 0.445602 0.406435 0.182748 -0.895217 92 72 50 255 4
-0.084757 0.023858 0.446430 0.399460 0.204567 -0.893635 87 69 50 255 4
-0.084285 0.023902 0.447258 0.389491 0.219390 -0.894519 78 72 54 255 4
-0.045277 0.026068 0.487799 -0.131951 -0.609504 -0.781725 75 66 48 255 2
-0.040596 0.023733 0.444100 -0.052862 -0.607128 -0.792844 108 82 57 255 2
-0.039850 0.023661 0.442752 -0.083813 -0.628099 -0.773607 115 88 60 255 2
-0.039048 0.023553 0.440730 -0.127300 -0.633446 -0.763244 117 88 61 255 2
-0.038338 0.023497 0.439690 -0.152102 -0.630333 -0.761279 121 94 66 255 2
-0.037657 0.023458 0.438958 -0.139812 -0.639989 -0.755558 126 99 72 255 2
-0.037000 0.023434 0.438495 -0.132686 -0.646973 -0.750880 129 102 75 255 2
-0.036369 0.023424 0.438322 -0.126791 -0.651934 -0.747600 130 103 76 255 2
-0.035758 0.023427 0.438380 -0.116361 -0.658487 -0.743542 130 101 74 255 2
-0.035167 0.023445 0.438707 -0.113174 -0.662129 -0.740794 128 97 71 255 2
-0.034590 0.023472 0.439208 -0.108307 -0.665000 -0.738948 118 89 63 255 2
-0.034035 0.023515 0.440017 -0.109159 -0.667836 -0.736260 114 87 61 255 2
-0.033542 0.023603 0.441673 -0.109899 -0.667407 -0.736539 87 76 56 255 2
-0.020897 0.023355 0.437032 -0.084076 -0.719061 -0.689842 95 85 65 255 2
-0.020267 0.023338 0.436704 -0.084263 -0.717303 -0.691647 115 97 73 255 2
-0.019641 0.023323 0.436435 -0.082814 -0.714389 -0.694831 130 103 77 255 2
-0.019019 0.023314 0.436261 -0.081095 -0.712494 -0.696977 126 102 76 255 2
-0.018405 0.023313 0.436242 -0.079022 -0.710183 -0.699568 128 99 74 255 2
-0.017794 0.023316 0.436300 -0.075166 -0.705782 -0.704431 127 98 75 255 2
-0.017184 0.023321 0.436396 -0.071773 -0.699900 -0.710626 123 94 70 255 2
-0.016576 0.023330 0.436550 -0.067735 -0.692142 -0.718576 119 91 67 255 2
-0.015973 0.023345 0.436839 -0.065375 -0.685784 -0.724863 117 87 63 255 2
-0.015368 0.023359 0.437109 -0.064638 -0.680224 -0.730148 115 84 61 255 2
-0.014764 0.023377 0.437436 -0.067180 -0.677975 -0.732008 115 84 61 255 2
-0.014158 0.023391 0.437706 -0.069830 -0.675184 -0.734337 114 85 61 255 2
-0.013551 0.023407 0.437995 -0.067891 -0.663864 -0.744766 112 83 60 255 2
-0.012943 0.023421 0.438264 -0.063235 -0.652018 -0.755562 111 83 61 255 2
-0.012336 0.023439 0.438592 -0.062182 -0.644445 -0.762118 109 82 60 255 2
-0.011729 0.023457 0.438938 -0.064359 -0.642818 -0.763310 104 81 59 255 2
-0.011120 0.023476 0.439285 -0.072880 -0.650506 -0.755996 103 80 59 255 2
-0.010512 0.023498 0.439709 -0.081422 -0.657499 -0.749043 103 80 58 255 2
-0.009905 0.023524 0.440190 -0.093541 -0.667915 -0.738336 99 77 56 255 2
-0.009300 0.023559 0.440845 -0.103728 -0.676651 -0.728961 84 72 54 255 2
-0.162812 0.024803 0.452227 -0.330364 -0.231698 -0.914973 127 100 77 255 3
-0.162231 0.024812 0.452381 -0.326012 -0.230550 -0.916822 133 101 75 255 3
-0.161657 0.024821 0.452555 -0.318713 -0.226842 -0.920307 141 106 79 255 3
-0.161082 0.024831 0.452728 -0.306462 -0.221734 -0.925697 141 106 79 255 3
-0.160514 0.024841 0.452921 -0.311690 -0.224325 -0.923324 143 110 82 255 3
-0.159979 0.024857 0.453210 -0.306916 -0.221937 -0.925498 137 113 86 255 3
-0.159443 0.024873 0.453498 -0.297096 -0.218143 -0.929595 132 108 83 255 3
-0.158906 0.024889 0.453787 -0.288515 -0.213814 -0.933297 123 99 76 255 3
-0.158369 0.024905 0.454076 -0.278935 -0.209593 -0.937159 118 92 69 255 3
-0.157877 0.024928 0.454500 -0.249649 -0.198452 -0.947783 114 88 66 255 3
-0.157431 0.024959 0.455058 -0.213480 -0.184595 -0.959349 114 88 66 255 3
-0.156991 0.024990 0.455636 -0.171196 -0.167005 -0.970980 108 82 63 255 3
-0.156674 0.025042 0.456580 -0.116074 -0.136763 -0.983780 98 82 64 255 3
-0.111250 0.024104 0.439478 -0.163991 -0.398556 -0.902364 74 51 33 255 4
-0.111116 0.024210 0.441404 -0.178395 -0.366908 -0.912992 90 62 40 255 3
-0.110105 0.024124 0.439844 -0.136970 -0.388585 -0.911175 86 58 39 255 3
-0.109175 0.024055 0.438592 -0.111307 -0.414822 -0.903069 88 59 41 255 3
-0.108401 0.024021 0.437956 -0.084957 -0.431618 -0.898047 91 62 44 255 3
-0.107695 0.024001 0.437590 -0.042258 -0.449659 -0.892200 91 64 47 255 3
-0.107028 0.023989 0.437378 -0.037455 -0.455261 -0.889570 91 68 50 255 3
-0.106356 0.023976 0.437147 -0.021668 -0.461140 -0.887063 95 73 56 255 3
-0.105672 0.023960 0.436858 -0.006701 -0.464237 -0.885686 99 79 63 255 3
-0.105020 0.023952 0.436704 0.019231 -0.466451 -0.884338 103 88 72 255 3
-0.104369 0.023944 0.436550 0.032646 -0.471917 -0.881038 105 96 81 255 3
-0.103284 0.023835 0.434567 0.068822 -0.528844 -0.845924 107 103 90 255 3
-0.102695 0.023840 0.434663 0.080452 -0.521933 -0.849184 108 107 95 255 3
-0.102102 0.023844 0.434740 0.092109 -0.516373 -0.851396 108 108 96 255 3
-0.101509 0.023848 0.434817 0.107800 -0.510918 -0.852844 109 110 98 255 3
-0.100911 0.023852 0.434875 0.117371 -0.503067 -0.856241 109 111 98 255 3
-0.100317 0.023856 0.434952 0.136521 -0.486643 -0.862867 110 111 99 255 3
-0.099718 0.023859 0.435010 0.155206 -0.481546 -0.862568 110 111 100 255 3
-0.099124 0.023863 0.435087 0.179433 -0.477127 -0.860322 109 111 99 255 3
-0.098534 0.023869 0.435183 0.206895 -0.467624 -0.859373 109 110 100 255 3
-0.097940 0.023873 0.435260 0.218157 -0.454389 -0.863677 109 110 99 255 3
-0.097418 0.023895 0.435664 0.243180 -0.435464 -0.866738 107 108 96 255 3
-0.096916 0.023922 0.436165 0.257353 -0.408625 -0.875668 106 107 95 255 3
-0.096414 0.023950 0.436666 0.286168 -0.383408 -0.878126 105 106 94 255 3
-0.095909 0.023977 0.437167 0.300399 -0.347435 -0.888284 105 106 94 255 3
-0.095441 0.024014 0.437841 0.322540 -0.310668 -0.894122 104 105 94 255 3
-0.094947 0.024045 0.438399 0.339989 -0.274460 -0.899488 103 104 93 255 3
-0.094421 0.024068 0.438823 0.351907 -0.242961 -0.903954 101 102 91 255 3
-0.093874 0.024086 0.439150 0.366025 -0.221966 -0.903746 99 100 90 255 3
-0.093326 0.024104 0.439478 0.379398 -0.193806 -0.904708 97 97 88 255 3
-0.092793 0.024126 0.439882 0.390683 -0.164487 -0.905710 94 96 86 255 3
-0.092247 0.024145 0.440229 0.404157 -0.135283 -0.904630 93 94 84 255 3
-0.091588 0.024135 0.440036 0.413133 -0.118859 -0.902881 93 94 84 255 3
-0.091001 0.024143 0.440190 0.421433 -0.098955 -0.901444 91 91 81 255 3
-0.090437 0.024158 0.440460 0.432651 -0.076202 -0.898335 98 94 82 255 3
-0.089877 0.024174 0.440749 0.435101 -0.045183 -0.899247 102 100 88 255 3
-0.089320 0.024191 0.441057 0.439627 -0.022215 -0.897906 103 95 82 255 3
-0.088905 0.024247 0.442078 0.439610 0.015565 -0.898054 103 95 82 255 3
-0.088371 0.024271 0.442521 0.437547 0.046004 -0.898018 101 78 55 255 3
-0.087860 0.024302 0.443079 0.440230 0.069919 -0.895159 100 76 53 255 4
-0.087362 0.024336 0.443715 0.434732 0.099714 -0.895022 98 75 53 255 4
-0.086851 0.024368 0.444293 0.432638 0.118547 -0.893740 96 74 52 255 4
-0.086409 0.024420 0.445236 0.425106 0.145875 -0.893311 94 73 51 255 4
-0.085916 0.024458 0.445930 0.418115 0.163684 -0.893525 88 70 50 255 4
-0.085400 0.024490 0.446507 0.409070 0.182425 -0.894082 82 71 53 255 4
-0.040541 0.024325 0.443503 -0.071334 -0.627866 -0.775046 108 82 57 255 2
-0.039744 0.024219 0.441577 -0.116235 -0.635176 -0.763571 116 88 61 255 2
-0.038995 0.024140 0.440133 -0.147138 -0.633635 -0.759511 116 89 62 255 2
-0.038272 0.024075 0.438938 -0.143363 -0.638275 -0.756341 121 94 66 255 2
-0.037597 0.024038 0.438264 -0.135042 -0.646179 -0.751143 126 99 72 255 2
-0.036947 0.024015 0.437860 -0.124547 -0.654322 -0.745889 130 102 75 255 2
-0.036317 0.024006 0.437687 -0.117016 -0.659404 -0.742626 131 103 77 255 2
-0.035699 0.024005 0.437667 -0.106273 -0.665346 -0.738932 131 102 76 255 2
-0.035110 0.024023 0.437995 -0.102635 -0.669011 -0.736132 127 98 72 255 2
-0.034529 0.024047 0.438438 -0.099840 -0.672269 -0.733544 118 90 64 255 2
-0.033975 0.024091 0.439247 -0.097472 -0.673913 -0.732353 116 88 61 255 2
-0.033458 0.024164 0.440575 -0.101836 -0.675314 -0.730466 90 78 57 255 2
-0.022698 0.023925 0.436204 -0.078002 -0.719857 -0.689725 93 79 60 255 2
-0.022068 0.023907 0.435876 -0.081235 -0.719943 -0.689262 114 91 69 255 2
-0.021440 0.023891 0.435587 -0.084448 -0.720237 -0.688569 125 99 71 255 2
-0.020826 0.023889 0.435549 -0.085704 -0.719344 -0.689347 125 100 73 255 2
-0.020215 0.023891 0.435587 -0.085403 -0.717115 -0.691703 126 105 78 255 2
-0.019605 0.023894 0.435645 -0.083248 -0.713695 -0.695492 128 104 78 255 2
-0.018995 0.023897 0.435703 -0.081247 -0.709815 -0.699687 124 102 77 255 2
-0.018383 0.023898 0.435722 -0.075413 -0.703964 -0.706221 123 95 71 255 2
-0.017778 0.023909 0.435915 -0.071466 -0.699515 -0.711036 120 90 67 255 2
-0.017176 0.023923 0.436184 -0.069252 -0.697757 -0.712979 114 86 63 255 2
-0.016573 0.023938 0.436454 -0.064941 -0.690621 -0.720295 113 84 61 255 2
-0.015972 0.023957 0.436801 -0.062588 -0.684438 -0.726380 112 83 60 255 2
-0.015368 0.023974 0.437109 -0.061177 -0.678735 -0.731830 113 83 60 255 2
-0.014764 0.023992 0.437436 -0.063663 -0.676474 -0.733710 113 85 62 255 2
-0.014159 0.024009 0.437744 -0.063807 -0.671129 -0.738590 114 86 63 255 2
-0.013552 0.024024 0.438014 -0.066603 -0.667059 -0.742022 110 84 62 255 2
-0.012946 0.024043 0.438361 -0.062491 -0.653731 -0.754142 108 82 60 255 2
-0.012339 0.024062 0.438707 -0.061995 -0.647572 -0.759478 103 78 58 255 2
-0.011734 0.024085 0.439131 -0.062674 -0.642820 -0.763449 102 77 58 255 2
-0.011128 0.024110 0.439593 -0.070387 -0.648435 -0.758010 99 77 57 255 2
-0.010525 0.024146 0.440248 -0.088134 -0.663397 -0.743059 88 74 55 255 2
-0.162888 0.025451 0.452439 -0.368047 -0.251193 -0.895234 117 92 65 255 3
-0.162286 0.025457 0.452535 -0.366741 -0.251718 -0.895622 117 92 65 255 3
-0.161705 0.025465 0.452690 -0.366741 -0.251718 -0.895622 131 96 70 255 3
-0.161123 0.025474 0.452844 -0.363320 -0.249499 -0.897635 133 97 67 255 3
-0.160555 0.025485 0.453036 -0.353335 -0.245590 -0.902685 128 99 73 255 3
-0.160006 0.025499 0.453287 -0.353047 -0.245893 -0.902715 126 100 75 255 3
-0.159456 0.025513 0.453537 -0.349490 -0.244057 -0.904595 126 100 75 255 3
-0.158920 0.025529 0.453826 -0.340647 -0.240343 -0.908953 112 91 70 255 3
-0.158376 0.025544 0.454095 -0.336178 -0.237661 -0.911319 107 85 64 255 3
-0.157918 0.025574 0.454615 -0.325959 -0.233508 -0.916092 104 82 61 255 3
-0.157478 0.025606 0.455193 -0.298454 -0.224304 -0.927692 103 80 60 255 3
-0.157077 0.025645 0.455887 -0.258012 -0.212801 -0.942415 98 82 62 255 3
-0.156799 0.025705 0.456946 -0.190508 -0.181548 -0.964752 87 82 66 255 3
-0.112668 0.025037 0.445082 -0.221150 -0.344418 -0.912397 35 26 18 255 0
-0.111010 0.024807 0.440980 -0.149523 -0.393656 -0.907016 98 69 45 255 3
-0.110067 0.024734 0.439690 -0.112926 -0.414391 -0.903066 96 63 43 255 3
-0.109084 0.024652 0.438226 -0.091272 -0.446270 -0.890232 99 66 46 255 3
-0.108172 0.024585 0.437032 -0.032292 -0.480947 -0.876155 99 67 47 255 3
-0.107486 0.024568 0.436743 -0.024634 -0.492476 -0.869977 99 68 49 255 3
-0.106820 0.024556 0.436531 -0.018898 -0.499760 -0.865958 98 69 50 255 3
-0.106159 0.024546 0.436338 0.005809 -0.506945 -0.861959 97 70 50 255 3
-0.105499 0.024535 0.436146 0.016928 -0.505367 -0.862738 98 73 53 255 3
-0.104844 0.024525 0.435972 0.040690 -0.516945 -0.855051 99 75 55 255 3
-0.104190 0.024515 0.435799 0.053565 -0.519080 -0.853046 101 78 59 255 3
-0.103536 0.024505 0.435626 0.079018 -0.522767 -0.848805 101 78 59 255 3
-0.102891 0.024498 0.435491 0.095908 -0.519437 -0.849110 108 90 73 255 3
-0.102021 0.024436 0.434393 0.110843 -0.552140 -0.826351 108 96 81 255 3
-0.101428 0.024440 0.434470 0.122355 -0.546836 -0.828251 110 103 89 255 3
-0.100835 0.024445 0.434547 0.127588 -0.539928 -0.831985 111 107 94 255 3
-0.100237 0.024448 0.434605 0.144623 -0.532638 -0.833895 110 109 97 255 3
-0.099639 0.024451 0.434663 0.162274 -0.528282 -0.833418 110 109 97 255 3
-0.099036 0.024453 0.434701 0.184252 -0.521959 -0.832832 109 110 99 255 3
-0.098430 0.024455 0.434721 0.205435 -0.513343 -0.833232 108 110 98 255 3
-0.097827 0.024457 0.434759 0.220868 -0.506849 -0.833259 109 111 99 255 3
-0.097314 0.024482 0.435202 0.238951 -0.487288 -0.839913 110 111 100 255 3
-0.096818 0.024511 0.435722 0.261035 -0.459582 -0.848908 108 109 98 255 3
-0.096316 0.024539 0.436223 0.282554 -0.428588 -0.858181 106 107 96 255 3
-0.095812 0.024567 0.436724 0.302124 -0.394277 -0.867909 104 105 94 255 3
-0.095332 0.024602 0.437340 0.319759 -0.363409 -0.875036 104 105 93 255 3
-0.094892 0.024647 0.438149 0.338871 -0.329211 -0.881355 103 104 93 255 3
-0.094363 0.024670 0.438553 0.353957 -0.289158 -0.889439 102 103 92 255 3
-0.093837 0.024694 0.438977 0.371027 -0.256693 -0.892439 99 99 89 255 3
-0.093314 0.024719 0.439420 0.380340 -0.225160 -0.897020 94 95 86 255 3
-0.092777 0.024741 0.439805 0.390125 -0.198000 -0.899221 92 93 83 255 3
-0.092243 0.024763 0.440210 0.402428 -0.174260 -0.898713 89 90 81 255 3
-0.091680 0.024778 0.440479 0.416479 -0.147738 -0.897061 89 90 81 255 3
-0.091113 0.024793 0.440730 0.425466 -0.110511 -0.898201 90 91 82 255 3
-0.090548 0.024808 0.440999 0.432269 -0.089694 -0.897273 92 93 83 255 3
-0.089983 0.024823 0.441269 0.437359 -0.065882 -0.896870 97 98 88 255 3
-0.089425 0.024840 0.441577 0.442528 -0.031699 -0.896194 99 99 88 255 3
-0.088862 0.024856 0.441866 0.446836 -0.011319 -0.894544 98 90 76 255 3
-0.088544 0.024942 0.443387 0.441097 0.034019 -0.896815 95 77 57 255 3
-0.088012 0.024968 0.443850 0.441982 0.064537 -0.894699 96 73 52 255 3
-0.087491 0.024997 0.444370 0.438319 0.087534 -0.894547 96 73 52 255 4
-0.087080 0.025059 0.445467 0.432546 0.118841 -0.893745 93 72 51 255 4
-0.086633 0.025111 0.446392 0.425656 0.142530 -0.893590 87 72 52 255 4
-0.086102 0.025139 0.446893 0.421166 0.161255 -0.892534 74 73 56 255 4
-0.040480 0.024911 0.442829 -0.095460 -0.637112 -0.764837 107 83 57 255 2
-0.039670 0.024794 0.440749 -0.131674 -0.638297 -0.758445 115 88 60 255 2
-0.038913 0.024707 0.439208 -0.147152 -0.637929 -0.755905 116 89 62 255 2
-0.038210 0.024652 0.438226 -0.128646 -0.650371 -0.748644 121 94 66 255 2
-0.037541 0.024617 0.437610 -0.123932 -0.655014 -0.745384 127 99 72 255 2
-0.036890 0.024593 0.437186 -0.114870 -0.661230 -0.741336 131 103 75 255 2
-0.036259 0.024582 0.436993 -0.106974 -0.665696 -0.738516 131 104 77 255 2
-0.035638 0.024578 0.436916 -0.099814 -0.670741 -0.734944 130 103 77 255 2
-0.035048 0.024595 0.437224 -0.096720 -0.672823 -0.733454 125 100 74 255 2
-0.034462 0.024616 0.437590 -0.091883 -0.677359 -0.729892 118 92 66 255 2
-0.033915 0.024666 0.438476 -0.090066 -0.681095 -0.726635 117 89 63 255 2
-0.033381 0.024726 0.439555 -0.089555 -0.684299 -0.723682 101 84 61 255 2
-0.023877 0.024489 0.435337 -0.072979 -0.721213 -0.688858 111 89 67 255 2
-0.023237 0.024460 0.434817 -0.076277 -0.720955 -0.688772 125 98 75 255 2
-0.022625 0.024460 0.434817 -0.079287 -0.720929 -0.688458 129 100 75 255 2
-0.022015 0.024461 0.434836 -0.081804 -0.721239 -0.687839 126 102 76 255 2
-0.021404 0.024462 0.434855 -0.084424 -0.721052 -0.687719 126 103 77 255 2
-0.020796 0.024465 0.434913 -0.085640 -0.719974 -0.688697 125 103 78 255 2
-0.020186 0.024468 0.434952 -0.085463 -0.717604 -0.691187 126 102 78 255 2
-0.019577 0.024471 0.435010 -0.083642 -0.713823 -0.695313 126 97 74 255 2
-0.018975 0.024484 0.435241 -0.080148 -0.709472 -0.700162 121 92 68 255 2
-0.018374 0.024499 0.435510 -0.076913 -0.704236 -0.705788 118 88 64 255 2
-0.017774 0.024515 0.435799 -0.070105 -0.697090 -0.713548 114 85 62 255 2
-0.017172 0.024531 0.436088 -0.066756 -0.694613 -0.716280 113 85 61 255 2
-0.016570 0.024548 0.436377 -0.063245 -0.690064 -0.720980 114 85 61 255 2
-0.015969 0.024567 0.436724 -0.059948 -0.683030 -0.727926 114 86 63 255 2
-0.015366 0.024586 0.437051 -0.058368 -0.678236 -0.732522 113 85 63 255 2
-0.014762 0.024604 0.437378 -0.056679 -0.671128 -0.739171 113 88 65 255 2
-0.014159 0.024625 0.437744 -0.060876 -0.671163 -0.738806 111 86 64 255 2
-0.013555 0.024645 0.438110 -0.065264 -0.669539 -0.739904 108 86 64 255 2
-0.012950 0.024666 0.438476 -0.060962 -0.656409 -0.751938 104 81 61 255 2
-0.012347 0.024694 0.438977 -0.062333 -0.650130 -0.757262 97 75 56 255 2
-0.011747 0.024731 0.439632 -0.067085 -0.647808 -0.758845 88 71 54 255 2
-0.163082 0.026119 0.452978 -0.385834 -0.261781 -0.884648 100 82 63 255 3
-0.162452 0.026120 0.452998 -0.385834 -0.261781 -0.884648 103 82 59 255 3
-0.161822 0.026121 0.453017 -0.387840 -0.263353 -0.883304 111 85 62 255 3
-0.161205 0.026124 0.453075 -0.386660 -0.263208 -0.883864 111 84 61 255 3
-0.160636 0.026135 0.453267 -0.380203 -0.260430 -0.887481 110 86 64 255 3
-0.160094 0.026151 0.453537 -0.377366 -0.258909 -0.889135 105 84 62 255 3
-0.159551 0.026166 0.453807 -0.373923 -0.258347 -0.890752 101 82 61 255 3
-0.159007 0.026182 0.454076 -0.370544 -0.257151 -0.892508 94 76 57 255 3
-0.158557 0.026213 0.454615 -0.364201 -0.252859 -0.896337 93 74 54 255 3
-0.158091 0.026242 0.455116 -0.356067 -0.249012 -0.900672 93 75 56 255 3
-0.157651 0.026275 0.455694 -0.346583 -0.244969 -0.905467 92 77 59 255 3
-0.157375 0.026336 0.456753 -0.295538 -0.230333 -0.927148 92 77 59 255 3
-0.112634 0.025656 0.444947 -0.198392 -0.357468 -0.912610 83 59 40 255 3
-0.110777 0.025374 0.440055 -0.112756 -0.427535 -0.896939 101 72 47 255 3
-0.109835 0.025299 0.438765 -0.089618 -0.452152 -0.887427 101 69 47 255 3
-0.108897 0.025225 0.437475 -0.064516 -0.486656 -0.871208 102 70 48 255 3
-0.107986 0.025156 0.436281 -0.012197 -0.524429 -0.851367 103 71 49 255 3
-0.107273 0.025133 0.435876 -0.006553 -0.537147 -0.843463 104 72 52 255 3
-0.106608 0.025120 0.435664 0.008812 -0.544776 -0.838535 105 74 53 255 3
-0.105944 0.025108 0.435452 0.033273 -0.550386 -0.834247 106 75 54 255 3
-0.105280 0.025096 0.435241 0.044424 -0.556074 -0.829944 109 78 56 255 3
-0.104622 0.025085 0.435048 0.066632 -0.564849 -0.822499 110 79 57 255 3
-0.103969 0.025075 0.434875 0.082863 -0.564335 -0.821377 110 79 57 255 3
-0.103330 0.025068 0.434759 0.103738 -0.569216 -0.815617 109 78 57 255 3
-0.102705 0.025065 0.434701 0.112477 -0.571048 -0.813174 110 80 59 255 3
-0.102080 0.025061 0.434644 0.121390 -0.570359 -0.812376 110 82 63 255 3
-0.101468 0.025061 0.434644 0.128932 -0.571475 -0.810427 110 86 68 255 3
-0.100857 0.025061 0.434644 0.138233 -0.569999 -0.809934 110 91 74 255 3
-0.100241 0.025060 0.434624 0.150702 -0.567732 -0.809302 109 96 81 255 3
-0.099476 0.025021 0.433950 0.168771 -0.576636 -0.799380 111 104 89 255 3
-0.098870 0.025023 0.433970 0.187008 -0.574134 -0.797119 110 107 93 255 3
-0.098268 0.025025 0.434008 0.204787 -0.564285 -0.799778 110 110 96 255 3
-0.097662 0.025026 0.434027 0.225403 -0.558051 -0.798606 108 108 96 255 3
-0.097116 0.025043 0.434316 0.238097 -0.543681 -0.804811 108 110 97 255 3
-0.096660 0.025083 0.435010 0.258468 -0.512815 -0.818667 107 109 96 255 3
-0.096201 0.025123 0.435703 0.279896 -0.481321 -0.830655 107 108 95 255 3
-0.095715 0.025156 0.436281 0.299169 -0.452934 -0.839851 105 106 94 255 3
-0.095227 0.025189 0.436858 0.318447 -0.417193 -0.851200 105 106 95 255 3
-0.094788 0.025236 0.437667 0.339904 -0.372946 -0.863352 104 104 94 255 3
-0.094309 0.025272 0.438303 0.353804 -0.335170 -0.873203 99 100 90 255 3
-0.093779 0.025296 0.438707 0.369869 -0.305515 -0.877415 98 99 89 255 3
-0.093297 0.025332 0.439343 0.379059 -0.272446 -0.884357 93 94 84 255 3
-0.092810 0.025368 0.439959 0.397826 -0.233779 -0.887176 89 90 80 255 3
-0.092272 0.025390 0.440344 0.405586 -0.197070 -0.892560 87 88 78 255 3
-0.091732 0.025412 0.440730 0.417277 -0.166861 -0.893329 87 88 79 255 3
-0.091220 0.025442 0.441250 0.424761 -0.136914 -0.894893 87 88 79 255 3
-0.090659 0.025459 0.441538 0.432489 -0.103810 -0.895643 89 91 81 255 3
-0.090093 0.025475 0.441808 0.438903 -0.077081 -0.895222 89 91 81 255 3
-0.089526 0.025490 0.442078 0.444443 -0.054238 -0.894164 96 97 87 255 3
-0.088966 0.025508 0.442386 0.446951 -0.026719 -0.894159 96 94 83 255 3
-0.088464 0.025542 0.442983 0.448089 0.010416 -0.893928 97 87 70 255 3
-0.088169 0.025638 0.444639 0.445589 0.055225 -0.893533 97 75 55 255 3
-0.087764 0.025702 0.445756 0.440242 0.090150 -0.893342 91 70 51 255 4
-0.087348 0.025764 0.446835 0.433173 0.119792 -0.893315 80 72 54 255 4
-0.040413 0.025491 0.442097 -0.118023 -0.638289 -0.760696 104 81 55 255 2
-0.039614 0.025378 0.440133 -0.139572 -0.640020 -0.755575 115 87 59 255 2
-0.038840 0.025277 0.438380 -0.134125 -0.648239 -0.749531 116 87 61 255 2
-0.038153 0.025230 0.437571 -0.123514 -0.654533 -0.745876 121 93 65 255 2
-0.037485 0.025195 0.436955 -0.115150 -0.661572 -0.740987 127 99 71 255 2
-0.036833 0.025169 0.436512 -0.106728 -0.667153 -0.737235 130 102 74 255 2
-0.036200 0.025156 0.436281 -0.097301 -0.672857 -0.733345 130 104 77 255 2
-0.035583 0.025154 0.436242 -0.090151 -0.678731 -0.728832 128 103 76 255 2
-0.034988 0.025167 0.436473 -0.087822 -0.680903 -0.727089 123 101 75 255 2
-0.034399 0.025185 0.436781 -0.084760 -0.683123 -0.725368 117 93 68 255 2
-0.033841 0.025227 0.437513 -0.083216 -0.686451 -0.722399 116 89 64 255 2
-0.033316 0.025296 0.438707 -0.085490 -0.687225 -0.721397 109 87 63 255 2
-0.025070 0.025070 0.434798 -0.067496 -0.720155 -0.690522 106 90 69 255 2
-0.024425 0.025036 0.434201 -0.071249 -0.721417 -0.688826 132 101 75 255 2
-0.023813 0.025034 0.434162 -0.075601 -0.723045 -0.686652 126 97 72 255 2
-0.023201 0.025033 0.434143 -0.076721 -0.721493 -0.688159 125 100 76 255 2
-0.022589 0.025031 0.434124 -0.080562 -0.722091 -0.687091 126 101 77 255 2
-0.021982 0.025035 0.434181 -0.082908 -0.721454 -0.687481 125 102 78 255 2
-0.021373 0.025037 0.434220 -0.084419 -0.721386 -0.687368 127 101 78 255 2
-0.020767 0.025043 0.434316 -0.085731 -0.720597 -0.688034 127 99 75 255 2
-0.020165 0.025054 0.434509 -0.085951 -0.718690 -0.689997 123 92 70 255 2
-0.019567 0.025070 0.434798 -0.084998 -0.714971 -0.693968 119 87 65 255 2
-0.018967 0.025085 0.435048 -0.081874 -0.710695 -0.698720 116 85 62 255 2
-0.018368 0.025103 0.435356 -0.077130 -0.704597 -0.705403 114 85 62 255 2
-0.017768 0.025120 0.435664 -0.073023 -0.699045 -0.711339 113 85 63 255 2
-0.017168 0.025139 0.435992 -0.066375 -0.692956 -0.717918 114 87 64 255 2
-0.016568 0.025158 0.436319 -0.062169 -0.689245 -0.721856 115 88 65 255 2
-0.015966 0.025177 0.436647 -0.059260 -0.683961 -0.727108 117 89 67 255 2
-0.015362 0.025194 0.436935 -0.054658 -0.675022 -0.735770 116 89 66 255 2
-0.014761 0.025217 0.437340 -0.055433 -0.672666 -0.737867 110 86 63 255 2
-0.014160 0.025242 0.437783 -0.058872 -0.669915 -0.740100 108 80 59 255 2
-0.013562 0.025275 0.438341 -0.063231 -0.670291 -0.739400 104 80 60 255 2
-0.012963 0.025308 0.438919 -0.066387 -0.665077 -0.743818 93 74 56 255 2
-0.163415 0.026810 0.453903 -0.394478 -0.267084 -0.879234 99 79 52 255 3
-0.162797 0.026814 0.453961 -0.393368 -0.266027 -0.880052 99 79 52 255 3
-0.162180 0.026817 0.454018 -0.392098 -0.266263 -0.880547 101 79 57 255 3
-0.161541 0.026817 0.454018 -0.391389 -0.266641 -0.880748 97 78 58 255 3
-0.160930 0.026822 0.454095 -0.388882 -0.265539 -0.882190 96 78 57 255 3
-0.160353 0.026832 0.454269 -0.388882 -0.265539 -0.882190 96 78 57 255 3
-0.159849 0.026855 0.454654 -0.385503 -0.264437 -0.884003 94 78 58 255 3
-0.159385 0.026884 0.455155 -0.375391 -0.259798 -0.889712 94 78 58 255 3
-0.158967 0.026922 0.455790 -0.370155 -0.257759 -0.892494 87 76 59 255 3
-0.158714 0.026988 0.456907 -0.357116 -0.249881 -0.900016 78 75 59 255 3
-0.114248 0.026658 0.451322 -0.349600 -0.314600 -0.882500 85 62 42 255 3
-0.110748 0.025986 0.439940 -0.094816 -0.450552 -0.887701 103 74 49 255 3
-0.109613 0.025864 0.437879 -0.058280 -0.493843 -0.867596 105 74 51 255 3
-0.108700 0.025793 0.436685 -0.036037 -0.530352 -0.847011 105 74 51 255 3
-0.107834 0.025733 0.435664 0.005357 -0.560504 -0.828134 107 74 52 255 3
-0.107055 0.025693 0.434990 0.017698 -0.576392 -0.816982 106 74 53 255 3
-0.106391 0.025681 0.434778 0.029921 -0.584228 -0.811038 110 77 55 255 3
-0.105728 0.025668 0.434567 0.058302 -0.593597 -0.802648 111 77 56 255 3
-0.105061 0.025655 0.434335 0.069664 -0.600159 -0.796841 113 79 58 255 3
-0.104404 0.025643 0.434143 0.088827 -0.605834 -0.790617 115 80 59 255 3
-0.103766 0.025636 0.434027 0.103828 -0.607523 -0.787487 115 80 59 255 3
-0.103142 0.025633 0.433970 0.118052 -0.611030 -0.782756 116 80 59 255 3
-0.102518 0.025629 0.433912 0.124686 -0.612856 -0.780295 116 82 60 255 3
-0.101894 0.025626 0.433854 0.127302 -0.615449 -0.777829 116 83 62 255 3
-0.101280 0.025625 0.433835 0.135274 -0.614324 -0.777372 116 85 64 255 3
-0.100674 0.025626 0.433854 0.146468 -0.611517 -0.777556 115 88 67 255 3
-0.100073 0.025628 0.433892 0.158268 -0.608677 -0.777472 114 89 69 255 3
-0.099476 0.025632 0.433950 0.174344 -0.605992 -0.776130 113 90 71 255 3
-0.098874 0.025634 0.433989 0.185439 -0.599500 -0.778596 113 92 73 255 3
-0.098273 0.025636 0.434027 0.200956 -0.591388 -0.780946 114 96 78 255 3
-0.097671 0.025639 0.434066 0.217639 -0.588440 -0.778699 115 101 84 255 3
-0.097172 0.025668 0.434567 0.239965 -0.563637 -0.790399 114 105 90 255 3
-0.096463 0.025642 0.434124 0.254822 -0.567060 -0.783268 115 110 96 255 3
-0.096005 0.025683 0.434817 0.278310 -0.538558 -0.795298 113 112 99 255 3
-0.095546 0.025724 0.435510 0.291172 -0.509503 -0.809707 107 108 96 255 3
-0.095101 0.025769 0.436281 0.309109 -0.474477 -0.824211 105 106 95 255 3
-0.094680 0.025822 0.437167 0.334952 -0.427910 -0.839464 104 104 93 255 3
-0.094239 0.025870 0.437975 0.347663 -0.394223 -0.850716 101 102 91 255 3
-0.093726 0.025898 0.438457 0.364702 -0.354760 -0.860894 98 99 89 255 3
-0.093248 0.025937 0.439112 0.377546 -0.312417 -0.871696 93 93 84 255 3
-0.092826 0.025991 0.440036 0.388868 -0.266271 -0.881976 90 90 81 255 3
-0.092304 0.026019 0.440498 0.400641 -0.234119 -0.885819 88 89 79 255 3
-0.091765 0.026041 0.440884 0.415519 -0.202827 -0.886682 84 85 76 255 3
-0.091320 0.026091 0.441731 0.422448 -0.152045 -0.893543 84 85 76 255 3
-0.090758 0.026108 0.442020 0.429649 -0.130320 -0.893543 84 85 76 255 3
-0.090199 0.026127 0.442328 0.441014 -0.099850 -0.891928 88 90 79 255 3
-0.089635 0.026144 0.442617 0.445797 -0.066105 -0.892690 90 92 82 255 3
-0.089090 0.026166 0.443002 0.449551 -0.040352 -0.892343 89 92 81 255 3
-0.088694 0.026234 0.444138 0.447665 -0.002027 -0.894199 91 90 78 255 3
-0.088299 0.026302 0.445294 0.446821 0.042665 -0.893606 90 81 65 255 3
-0.040328 0.026058 0.441173 -0.136014 -0.639792 -0.756417 103 81 55 255 2
-0.039557 0.025959 0.439497 -0.138883 -0.646469 -0.750193 115 85 58 255 2
-0.038780 0.025854 0.437706 -0.126799 -0.654255 -0.745568 115 87 60 255 2
-0.038108 0.025815 0.437051 -0.117403 -0.662190 -0.740082 122 93 65 255 2
-0.037429 0.025771 0.436300 -0.105713 -0.669940 -0.734850 127 98 69 255 2
-0.036776 0.025743 0.435838 -0.099581 -0.672877 -0.733021 129 100 72 255 2
-0.036146 0.025731 0.435626 -0.089771 -0.678401 -0.729186 131 104 77 255 2
-0.035528 0.025727 0.435568 -0.085653 -0.681613 -0.726682 131 105 78 255 2
-0.034928 0.025736 0.435722 -0.081524 -0.684444 -0.724493 124 101 75 255 2
-0.034338 0.025753 0.436011 -0.082522 -0.686940 -0.722014 119 95 70 255 2
-0.033772 0.025790 0.436627 -0.079909 -0.689108 -0.720239 116 91 66 255 2
-0.033232 0.025847 0.437590 -0.076357 -0.691723 -0.718114 113 88 64 255 2
-0.026251 0.025641 0.434104 -0.064411 -0.717655 -0.693413 110 90 67 255 2
-0.025610 0.025610 0.433584 -0.066341 -0.719188 -0.691642 120 95 71 255 2
-0.025001 0.025611 0.433604 -0.069971 -0.721391 -0.688984 123 98 73 255 2
-0.024395 0.025615 0.433661 -0.072209 -0.721655 -0.688477 126 100 75 255 2
-0.023787 0.025617 0.433700 -0.075985 -0.723297 -0.686344 126 101 76 255 2
-0.023173 0.025612 0.433623 -0.078146 -0.723061 -0.686350 127 101 77 255 2
-0.022558 0.025607 0.433527 -0.079894 -0.721912 -0.687357 129 102 78 255 2
-0.021954 0.025614 0.433642 -0.083449 -0.721873 -0.686976 127 101 77 255 2
-0.021353 0.025624 0.433815 -0.084989 -0.721654 -0.687017 127 96 73 255 2
-0.020755 0.025639 0.434066 -0.085341 -0.719877 -0.688836 122 90 66 255 2
-0.020156 0.025653 0.434316 -0.086512 -0.719259 -0.689335 119 88 64 255 2
-0.019558 0.025670 0.434605 -0.085568 -0.716024 -0.692812 117 88 63 255 2
-0.018960 0.025688 0.434894 -0.082568 -0.711956 -0.697353 116 87 64 255 2
-0.018363 0.025708 0.435241 -0.077646 -0.705424 -0.704519 115 87 65 255 2
-0.017765 0.025728 0.435587 -0.073897 -0.700213 -0.710099 116 89 67 255 2
-0.017164 0.025747 0.435895 -0.067795 -0.693599 -0.717164 115 88 67 255 2
-0.016563 0.025765 0.436204 -0.062577 -0.689066 -0.721992 115 89 67 255 2
-0.015960 0.025782 0.436492 -0.057286 -0.683207 -0.727974 115 88 66 255 2
-0.015361 0.025807 0.436916 -0.053726 -0.676961 -0.734056 108 84 62 255 2
-0.014764 0.025838 0.437436 -0.055242 -0.673231 -0.737366 101 78 57 255 2
-0.014171 0.025877 0.438110 -0.056664 -0.669787 -0.740388 97 74 55 255 2
-0.013590 0.025945 0.439247 -0.066043 -0.672760 -0.736908 77 69 52 255 2
-0.164150 0.027572 0.455944 -0.397096 -0.262667 -0.879387 88 84 59 255 3
-0.163585 0.027585 0.456156 -0.391336 -0.259792 -0.882816 94 86 65 255 3
-0.163026 0.027599 0.456387 -0.388988 -0.258753 -0.884158 93 86 65 255 3
-0.162459 0.027612 0.456599 -0.388681 -0.258807 -0.884277 85 83 65 255 3
-0.161906 0.027627 0.456850 -0.384354 -0.258154 -0.886357 85 83 65 255 3
-0.114214 0.027284 0.451187 -0.321377 -0.329408 -0.887811 84 62 44 255 3
-0.110646 0.026580 0.439535 -0.056097 -0.483137 -0.873746 106 75 51 255 3
-0.109421 0.026433 0.437109 -0.031295 -0.537594 -0.842623 110 77 54 255 3
-0.108504 0.026360 0.435895 0.016332 -0.573841 -0.818804 110 78 54 255 3
-0.107681 0.026308 0.435048 0.026824 -0.596447 -0.802204 110 78 54 255 3
-0.106865 0.026258 0.434220 0.041089 -0.612440 -0.789449 111 78 56 255 3
-0.106175 0.026239 0.433892 0.049379 -0.624707 -0.779296 113 79 57 255 3
-0.105513 0.026226 0.433681 0.076280 -0.630456 -0.772467 114 80 58 255 3
-0.104847 0.026212 0.433450 0.088351 -0.636833 -0.765923 116 82 59 255 3
-0.104182 0.026198 0.433218 0.092381 -0.640139 -0.762684 117 82 59 255 3
-0.103554 0.026193 0.433141 0.112412 -0.643185 -0.757414 118 82 60 255 3
-0.102927 0.026188 0.433064 0.119557 -0.652607 -0.748204 118 82 60 255 3
-0.102300 0.026184 0.432987 0.121786 -0.655855 -0.744998 119 84 62 255 3
-0.101686 0.026183 0.432968 0.133190 -0.656724 -0.742276 118 84 62 255 3
-0.101091 0.026186 0.433026 0.136871 -0.654272 -0.743771 118 87 66 255 3
-0.100495 0.026190 0.433084 0.152789 -0.652170 -0.742516 118 89 68 255 3
-0.099904 0.026194 0.433161 0.159034 -0.645157 -0.747316 117 90 68 255 3
-0.099308 0.026198 0.433218 0.173318 -0.640798 -0.747889 118 90 69 255 3
-0.098712 0.026201 0.433276 0.192098 -0.636684 -0.746814 118 90 69 255 3
-0.098116 0.026205 0.433334 0.206714 -0.628737 -0.749639 118 90 68 255 3
-0.097523 0.026209 0.433411 0.217942 -0.623648 -0.750710 118 90 69 255 3
-0.097004 0.026234 0.433815 0.236209 -0.604327 -0.760917 116 90 71 255 3
-0.096514 0.026267 0.434355 0.250867 -0.587595 -0.769284 113 94 76 255 3
-0.096027 0.026300 0.434913 0.270440 -0.566613 -0.778339 112 101 85 255 3
-0.095352 0.026283 0.434624 0.284856 -0.563606 -0.775375 111 108 94 255 3
-0.094896 0.026326 0.435337 0.307159 -0.530748 -0.789911 110 110 97 255 3
-0.094542 0.026398 0.436531 0.319487 -0.487007 -0.812867 107 108 96 255 3
-0.094135 0.026456 0.437494 0.345352 -0.439246 -0.829334 102 102 92 255 3
-0.093668 0.026498 0.438187 0.360867 -0.401279 -0.841873 99 98 88 255 3
-0.093199 0.026540 0.438881 0.371669 -0.362547 -0.854647 93 93 83 255 3
-0.092810 0.026605 0.439959 0.389604 -0.302664 -0.869829 88 88 78 255 3
-0.092336 0.026647 0.440653 0.397084 -0.274372 -0.875810 85 85 76 255 3
-0.091797 0.026671 0.441038 0.409862 -0.232232 -0.882089 81 81 72 255 3
-0.091363 0.026725 0.441943 0.419637 -0.196713 -0.886120 82 82 73 255 3
-0.090857 0.026759 0.442501 0.428593 -0.144565 -0.891857 82 83 74 255 3
-0.090297 0.026778 0.442810 0.436638 -0.119585 -0.891654 83 85 75 255 3
-0.089733 0.026795 0.443098 0.442586 -0.090933 -0.892104 83 87 76 255 3
-0.089331 0.026862 0.444196 0.445431 -0.045076 -0.894181 85 89 77 255 3
-0.088937 0.026932 0.445352 0.450206 -0.000232 -0.892925 86 90 79 255 3
-0.040297 0.026658 0.440826 -0.132598 -0.646852 -0.750999 103 81 56 255 2
-0.039500 0.026539 0.438861 -0.130715 -0.652172 -0.746716 114 84 57 255 2
-0.038734 0.026438 0.437186 -0.118157 -0.661943 -0.740182 114 85 59 255 2
-0.038052 0.026391 0.436415 -0.110011 -0.668486 -0.735544 121 91 64 255 2
-0.037371 0.026343 0.435626 -0.100253 -0.674393 -0.731535 126 96 68 255 2
-0.036724 0.026319 0.435221 -0.093738 -0.676678 -0.730288 129 101 72 255 2
-0.036091 0.026304 0.434971 -0.088136 -0.681122 -0.726846 131 104 76 255 2
-0.035476 0.026301 0.434932 -0.083092 -0.684656 -0.724114 130 104 77 255 2
-0.034868 0.026304 0.434971 -0.079879 -0.687968 -0.721332 126 101 74 255 2
-0.034282 0.026324 0.435298 -0.078628 -0.688586 -0.720879 121 96 71 255 2
-0.033711 0.026356 0.435838 -0.074929 -0.693214 -0.716827 117 93 67 255 2
-0.033153 0.026399 0.436550 -0.073333 -0.696369 -0.713927 113 89 64 255 2
-0.027431 0.026212 0.433450 -0.062851 -0.716067 -0.695197 111 90 69 255 2
-0.026792 0.026183 0.432968 -0.062909 -0.717190 -0.694033 124 94 71 255 2
-0.026193 0.026193 0.433141 -0.064540 -0.719511 -0.691476 122 95 71 255 2
-0.025589 0.026198 0.433218 -0.066373 -0.720665 -0.690099 124 98 74 255 2
-0.024982 0.026200 0.433257 -0.070162 -0.722204 -0.688113 124 100 76 255 2
-0.024373 0.026201 0.433276 -0.073134 -0.722386 -0.687612 126 101 76 255 2
-0.023759 0.026195 0.433180 -0.076351 -0.723269 -0.686332 129 102 77 255 2
-0.023142 0.026187 0.433045 -0.079697 -0.724258 -0.684908 129 102 77 255 2
-0.022540 0.026195 0.433180 -0.080791 -0.722732 -0.686390 129 101 76 255 2
-0.021940 0.026206 0.433353 -0.082363 -0.722737 -0.686198 126 95 71 255 2
-0.021342 0.026220 0.433584 -0.084787 -0.722063 -0.686612 122 89 66 255 2
-0.020745 0.026236 0.433854 -0.086021 -0.720798 -0.687786 120 88 62 255 2
-0.020149 0.026255 0.434162 -0.086913 -0.719892 -0.688623 120 90 64 255 2
-0.019552 0.026273 0.434470 -0.085258 -0.716401 -0.692460 119 90 65 255 2
-0.018956 0.026294 0.434817 -0.083177 -0.712407 -0.696819 118 90 67 255 2
-0.018359 0.026314 0.435144 -0.080360 -0.708313 -0.701309 116 89 66 255 2
-0.017759 0.026333 0.435452 -0.074253 -0.700902 -0.709382 116 89 67 255 2
-0.017158 0.026350 0.435741 -0.069583 -0.695302 -0.715341 114 88 66 255 2
-0.016557 0.026369 0.436050 -0.062015 -0.687499 -0.723533 110 85 64 255 2
-0.015963 0.026400 0.436570 -0.056538 -0.682451 -0.728741 104 80 60 255 2
-0.015368 0.026433 0.437109 -0.053796 -0.677706 -0.733363 98 76 56 255 2
-0.014781 0.026482 0.437918 -0.054118 -0.674099 -0.736656 88 71 53 255 2
-0.114267 0.027932 0.451399 -0.292728 -0.340432 -0.893541 85 64 46 255 3
-0.110593 0.027185 0.439324 -0.028435 -0.512697 -0.858099 107 75 51 255 3
-0.109223 0.026999 0.436319 -0.007813 -0.580726 -0.814061 107 75 51 255 3
-0.108350 0.026935 0.435279 0.033204 -0.607069 -0.793955 112 80 57 255 3
-0.107524 0.026881 0.434412 0.045412 -0.626242 -0.778305 112 79 57 255 3
-0.106676 0.026821 0.433450 0.062267 -0.646085 -0.760722 112 79 57 255 3
-0.105958 0.026794 0.433007 0.069317 -0.655664 -0.751865 114 80 58 255 3
-0.105297 0.026781 0.432795 0.087707 -0.661182 -0.745081 114 80 58 255 3
-0.104633 0.026767 0.432564 0.102621 -0.668153 -0.736912 117 82 59 255 3
-0.103960 0.026750 0.432294 0.103802 -0.671453 -0.733741 118 83 60 255 3
-0.103315 0.026740 0.432140 0.105830 -0.673495 -0.731577 119 83 61 255 3
-0.102684 0.026734 0.432044 0.122347 -0.682295 -0.720767 121 84 62 255 3
-0.102077 0.026734 0.432044 0.121602 -0.682033 -0.721141 120 84 62 255 3
-0.101487 0.026739 0.432121 0.138450 -0.682601 -0.717556 120 85 63 255 3
-0.100893 0.026743 0.432178 0.148825 -0.678643 -0.719232 120 88 66 255 3
-0.100298 0.026746 0.432236 0.152582 -0.678829 -0.718269 120 91 69 255 3
-0.099704 0.026750 0.432294 0.167643 -0.676423 -0.717180 119 91 70 255 3
-0.099114 0.026755 0.432371 0.182056 -0.671979 -0.717844 119 91 70 255 3
-0.098532 0.026762 0.432487 0.192711 -0.666107 -0.720531 121 93 70 255 3
-0.097945 0.026768 0.432583 0.200450 -0.663238 -0.721066 121 92 69 255 3
-0.097359 0.026774 0.432679 0.218115 -0.654042 -0.724331 121 91 68 255 3
-0.096841 0.026799 0.433084 0.228877 -0.640788 -0.732807 119 89 67 255 3
-0.096352 0.026832 0.433623 0.248593 -0.624672 -0.740261 115 87 66 255 3
-0.095861 0.026865 0.434162 0.260191 -0.608570 -0.749628 112 87 67 255 3
-0.095368 0.026899 0.434701 0.282382 -0.581920 -0.762646 111 92 73 255 3
-0.094942 0.026951 0.435549 0.295641 -0.553774 -0.778416 108 98 83 255 3
-0.094321 0.026949 0.435510 0.314463 -0.544516 -0.777571 107 105 92 255 3
-0.093974 0.027025 0.436743 0.337775 -0.496918 -0.799362 105 105 94 255 3
-0.093586 0.027091 0.437802 0.351082 -0.453560 -0.819161 98 98 88 255 3
-0.093150 0.027143 0.438650 0.365929 -0.405440 -0.837684 98 98 88 255 3
-0.092789 0.027218 0.439863 0.380457 -0.349092 -0.856380 88 88 78 255 3
-0.092324 0.027263 0.440595 0.388067 -0.318730 -0.864763 85 85 76 255 3
-0.091829 0.027300 0.441192 0.409089 -0.267130 -0.872518 83 83 74 255 3
-0.091391 0.027355 0.442078 0.416937 -0.220565 -0.881768 83 83 74 255 3
-0.090956 0.027411 0.442983 0.424844 -0.179654 -0.887261 79 80 71 255 3
-0.090395 0.027430 0.443291 0.435196 -0.144245 -0.888706 78 80 70 255 3
-0.089901 0.027470 0.443927 0.443063 -0.100378 -0.890853 78 81 71 255 3
-0.040265 0.027256 0.440479 -0.131285 -0.651244 -0.747426 98 79 55 255 2
-0.039444 0.027118 0.438245 -0.125689 -0.659377 -0.741232 113 83 57 255 2
-0.038697 0.027026 0.436762 -0.111837 -0.666759 -0.736834 116 85 58 255 2
-0.037997 0.026966 0.435780 -0.106247 -0.671361 -0.733475 121 90 63 255 2
-0.037323 0.026921 0.435067 -0.095716 -0.678257 -0.728564 125 96 68 255 2
-0.036679 0.026898 0.434682 -0.090210 -0.680667 -0.727017 130 102 73 255 2
-0.036040 0.026877 0.434355 -0.083050 -0.685559 -0.723264 132 105 75 255 2
-0.035423 0.026873 0.434278 -0.079894 -0.689473 -0.719892 130 105 77 255 2
-0.034809 0.026870 0.434239 -0.077481 -0.692099 -0.717632 129 102 74 255 2
-0.034227 0.026893 0.434605 -0.075620 -0.694276 -0.715725 125 98 72 255 2
-0.033656 0.026925 0.435125 -0.072798 -0.695635 -0.714698 119 97 70 255 2
-0.033101 0.026971 0.435876 -0.072336 -0.698469 -0.711975 115 91 65 255 2
-0.032593 0.027058 0.437282 -0.073503 -0.699564 -0.710779 87 77 58 255 2
-0.028609 0.026783 0.432833 -0.061669 -0.714532 -0.696879 111 95 72 255 2
-0.027966 0.026750 0.432294 -0.062457 -0.716133 -0.695164 121 97 73 255 2
-0.027368 0.026759 0.432448 -0.062963 -0.717078 -0.694143 126 99 74 255 2
-0.026769 0.026769 0.432602 -0.063547 -0.718965 -0.692135 125 99 75 255 2
-0.026171 0.026780 0.432775 -0.065430 -0.719558 -0.691343 126 100 75 255 2
-0.025568 0.026786 0.432872 -0.068617 -0.722132 -0.688343 127 100 76 255 2
-0.024956 0.026782 0.432814 -0.071023 -0.722972 -0.687218 127 101 77 255 2
-0.024336 0.026770 0.432621 -0.073774 -0.723382 -0.686496 126 101 76 255 2
-0.023729 0.026771 0.432641 -0.076762 -0.724404 -0.685089 126 100 75 255 2
-0.023127 0.026778 0.432756 -0.079522 -0.724249 -0.684938 125 96 71 255 2
-0.022528 0.026790 0.432949 -0.082031 -0.723911 -0.684999 122 93 68 255 2
-0.021929 0.026802 0.433141 -0.082444 -0.722871 -0.686047 122 90 66 255 2
-0.021333 0.026819 0.433411 -0.084998 -0.722869 -0.685737 122 89 65 255 2
-0.020738 0.026838 0.433719 -0.086556 -0.721864 -0.686600 123 90 64 255 2
-0.020144 0.026858 0.434047 -0.086493 -0.719234 -0.689363 124 91 66 255 2
-0.019549 0.026880 0.434393 -0.086153 -0.717931 -0.690762 122 91 67 255 2
-0.018951 0.026899 0.434701 -0.083836 -0.713088 -0.696044 119 89 66 255 2
-0.018352 0.026917 0.434990 -0.081052 -0.709036 -0.700499 114 86 64 255 2
-0.017752 0.026935 0.435279 -0.075590 -0.702539 -0.707620 112 84 63 255 2
-0.017156 0.026960 0.435684 -0.071022 -0.696764 -0.713775 108 82 61 255 2
-0.016565 0.026995 0.436261 -0.067100 -0.692775 -0.718026 104 80 60 255 2
-0.015974 0.027032 0.436858 -0.057846 -0.683398 -0.727750 96 75 57 255 2
-0.015393 0.027092 0.437821 -0.055445 -0.681050 -0.730135 75 67 52 255 2
-0.114180 0.028545 0.451053 -0.241292 -0.362143 -0.900350 87 66 48 255 3
-0.110312 0.027732 0.438207 0.000830 -0.560006 -0.828488 113 80 55 255 3
-0.109069 0.027574 0.435703 0.024671 -0.616375 -0.787066 113 82 57 255 3
-0.108159 0.027498 0.434509 0.055641 -0.639470 -0.766800 113 81 57 255 3
-0.107290 0.027432 0.433469 0.065450 -0.659746 -0.748634 111 79 56 255 3
-0.106491 0.027383 0.432698 0.075969 -0.672993 -0.735737 111 78 56 255 3
-0.105741 0.027347 0.432121 0.088830 -0.684037 -0.724019 113 80 58 255 3
-0.105077 0.027332 0.431890 0.099706 -0.687396 -0.719407 114 79 57 255 3
-0.104409 0.027316 0.431639 0.109103 -0.694287 -0.711380 115 81 59 255 3
-0.103737 0.027299 0.431370 0.112756 -0.700347 -0.704841 117 82 60 255 3
-0.103071 0.027283 0.431119 0.115302 -0.702932 -0.701849 119 83 61 255 3
-0.102469 0.027285 0.431138 0.110482 -0.703639 -0.701916 119 83 61 255 3
-0.101876 0.027288 0.431196 0.132133 -0.705171 -0.696617 120 84 62 255 3
-0.101284 0.027292 0.431254 0.135047 -0.702617 -0.698635 121 86 64 255 3
-0.100682 0.027293 0.431273 0.154896 -0.703681 -0.693427 122 90 67 255 3
-0.100097 0.027299 0.431370 0.164893 -0.699864 -0.694983 120 90 68 255 3
-0.099526 0.027309 0.431524 0.178185 -0.696412 -0.695170 121 92 70 255 3
-0.098955 0.027319 0.431678 0.185010 -0.693097 -0.696697 122 93 70 255 3
-0.098370 0.027325 0.431774 0.190165 -0.690795 -0.697595 124 95 71 255 3
-0.097784 0.027331 0.431870 0.208952 -0.682956 -0.699936 124 95 71 255 3
-0.097203 0.027338 0.431986 0.215701 -0.679386 -0.701361 122 91 68 255 3
-0.096673 0.027360 0.432332 0.228730 -0.668648 -0.707525 121 90 67 255 3
-0.096189 0.027396 0.432891 0.242778 -0.654648 -0.715888 117 87 64 255 3
-0.095703 0.027431 0.433450 0.257117 -0.639713 -0.724333 115 85 63 255 3
-0.095221 0.027467 0.434027 0.272133 -0.619132 -0.736627 111 83 62 255 3
-0.094774 0.027515 0.434778 0.286774 -0.598885 -0.747728 107 86 67 255 3
-0.094404 0.027586 0.435895 0.308100 -0.561597 -0.767908 105 92 76 255 3
-0.093762 0.027577 0.435761 0.328279 -0.551460 -0.766893 104 99 87 255 3
-0.093409 0.027654 0.436974 0.339779 -0.511175 -0.789462 104 99 87 255 3
-0.093101 0.027745 0.438418 0.358051 -0.453515 -0.816164 99 99 88 255 3
-0.092741 0.027822 0.439632 0.371666 -0.403238 -0.836220 89 89 78 255 3
-0.092304 0.027877 0.440498 0.385508 -0.351386 -0.853177 86 86 77 255 3
-0.091833 0.027922 0.441211 0.398106 -0.315644 -0.861325 84 84 75 255 3
-0.091419 0.027985 0.442213 0.407943 -0.264981 -0.873709 80 80 71 255 3
-0.090999 0.028048 0.443195 0.425574 -0.202064 -0.882076 78 79 70 255 3
-0.040281 0.027887 0.440653 -0.128110 -0.656284 -0.743558 89 74 53 255 2
-0.039417 0.027715 0.437937 -0.121032 -0.663525 -0.738300 114 82 56 255 2
-0.038661 0.027615 0.436358 -0.108841 -0.670467 -0.733912 115 83 57 255 2
-0.037960 0.027552 0.435356 -0.099553 -0.676857 -0.729351 120 89 62 255 2
-0.037278 0.027500 0.434547 -0.092584 -0.682277 -0.725208 125 96 69 255 2
-0.036635 0.027476 0.434162 -0.085206 -0.685801 -0.722785 130 102 74 255 2
-0.035987 0.027448 0.433719 -0.081779 -0.688666 -0.720452 132 105 76 255 2
-0.035370 0.027442 0.433623 -0.078559 -0.691804 -0.717799 131 106 77 255 2
-0.034754 0.027437 0.433546 -0.074971 -0.693788 -0.716266 130 103 75 255 2
-0.034174 0.027461 0.433931 -0.071719 -0.695960 -0.714491 127 99 73 255 2
-0.033606 0.027496 0.434470 -0.071654 -0.698429 -0.712083 120 97 68 255 2
-0.033053 0.027544 0.435241 -0.072516 -0.699370 -0.711072 115 91 64 255 2
-0.032543 0.027631 0.436608 -0.072607 -0.701814 -0.708650 91 78 56 255 2
-0.029788 0.027357 0.432275 -0.063105 -0.711415 -0.699933 113 91 70 255 2
-0.029140 0.027319 0.431678 -0.063093 -0.713992 -0.697305 129 99 74 255 2
-0.028538 0.027324 0.431755 -0.063253 -0.715822 -0.695412 131 101 75 255 2
-0.027942 0.027335 0.431928 -0.062504 -0.716356 -0.694929 128 102 75 255 2
-0.027344 0.027344 0.432082 -0.062948 -0.718092 -0.693096 129 103 76 255 2
-0.026745 0.027353 0.432217 -0.064202 -0.719511 -0.691507 128 103 77 255 2
-0.026144 0.027360 0.432332 -0.065901 -0.721090 -0.689700 128 102 76 255 2
-0.025532 0.027355 0.432255 -0.069807 -0.722805 -0.687517 126 103 77 255 2
-0.024915 0.027346 0.432101 -0.071944 -0.723295 -0.686781 125 100 75 255 2
-0.024314 0.027353 0.432217 -0.073774 -0.723382 -0.686496 124 98 73 255 2
-0.023714 0.027363 0.432371 -0.077222 -0.725103 -0.684297 123 94 70 255 2
-0.023117 0.027375 0.432564 -0.079934 -0.724526 -0.684597 121 91 66 255 2
-0.022520 0.027389 0.432795 -0.082660 -0.724636 -0.684156 120 90 65 255 2
-0.021923 0.027404 0.433026 -0.082616 -0.723471 -0.685394 120 90 65 255 2
-0.021329 0.027422 0.433315 -0.084563 -0.723301 -0.685336 120 89 64 255 2
-0.020734 0.027442 0.433623 -0.086512 -0.722306 -0.686141 122 89 64 255 2
-0.020138 0.027461 0.433931 -0.086988 -0.720053 -0.688445 122 89 64 255 2
-0.019541 0.027480 0.434220 -0.086733 -0.718662 -0.689929 120 90 65 255 2
-0.018943 0.027498 0.434509 -0.084078 -0.713838 -0.695245 114 86 63 255 2
-0.018347 0.027521 0.434875 -0.081633 -0.710136 -0.699316 108 83 62 255 2
-0.017753 0.027548 0.435298 -0.078069 -0.704841 -0.705056 105 79 59 255 2
-0.017164 0.027584 0.435876 -0.071558 -0.697706 -0.712802 102 78 59 255 2
-0.016584 0.027639 0.436743 -0.068204 -0.693536 -0.717186 92 75 57 255 2
-0.114068 0.029151 0.450610 -0.161501 -0.393068 -0.905215 56 61 49 255 0
-0.110026 0.028275 0.437070 0.024105 -0.608044 -0.793538 89 70 51 255 3
-0.108856 0.028131 0.434855 0.057512 -0.648340 -0.759176 114 82 58 255 3
-0.107924 0.028048 0.433565 0.076554 -0.670341 -0.738094 113 82 58 255 3
-0.107090 0.027989 0.432660 0.077284 -0.685579 -0.723885 112 80 57 255 3
-0.106306 0.027943 0.431947 0.089088 -0.696758 -0.711753 111 79 57 255 3
-0.105524 0.027897 0.431235 0.105788 -0.705213 -0.701059 112 78 57 255 3
-0.104857 0.027881 0.430984 0.110511 -0.711120 -0.694331 114 80 58 255 3
-0.104190 0.027865 0.430734 0.114645 -0.716766 -0.687825 116 81 60 255 3
-0.103524 0.027849 0.430484 0.123264 -0.720961 -0.681924 116 81 60 255 3
-0.102859 0.027832 0.430233 0.124088 -0.723723 -0.678843 117 82 60 255 3
-0.102258 0.027834 0.430252 0.128981 -0.722240 -0.679510 119 83 61 255 3
-0.101663 0.027836 0.430291 0.139423 -0.723383 -0.676224 120 85 63 255 3
-0.101057 0.027836 0.430291 0.146972 -0.723509 -0.674488 122 87 65 255 3
-0.100443 0.027834 0.430252 0.156115 -0.720924 -0.675201 122 89 67 255 3
-0.099825 0.027830 0.430195 0.173984 -0.721101 -0.670629 121 91 69 255 3
-0.099251 0.027839 0.430330 0.178901 -0.715113 -0.675728 121 92 70 255 3
-0.098681 0.027849 0.430484 0.192431 -0.712726 -0.674531 121 92 69 255 3
-0.098111 0.027859 0.430638 0.199357 -0.709131 -0.676306 123 94 70 255 3
-0.097544 0.027870 0.430811 0.202836 -0.704358 -0.680248 124 94 70 255 3
-0.097008 0.027890 0.431119 0.221562 -0.694145 -0.684889 123 92 68 255 3
-0.096522 0.027925 0.431658 0.228466 -0.689258 -0.687551 122 90 66 255 3
-0.096061 0.027967 0.432313 0.237084 -0.675112 -0.698581 119 87 64 255 3
-0.095580 0.028004 0.432891 0.253794 -0.659350 -0.707705 114 85 62 255 3
-0.095098 0.028042 0.433469 0.269730 -0.644484 -0.715462 110 83 61 255 3
-0.094656 0.028092 0.434239 0.282045 -0.628015 -0.725292 106 81 60 255 3
-0.094246 0.028151 0.435164 0.302486 -0.600060 -0.740561 102 81 62 255 3
-0.093866 0.028221 0.436242 0.323182 -0.565727 -0.758621 103 88 71 255 3
-0.093207 0.028207 0.436030 0.335813 -0.554934 -0.761103 102 97 83 255 3
-0.092843 0.028283 0.437205 0.344592 -0.520448 -0.781275 96 96 85 255 3
-0.092692 0.028425 0.439401 0.363473 -0.442927 -0.819575 92 92 81 255 3
-0.092288 0.028492 0.440421 0.372740 -0.400178 -0.837211 88 88 78 255 3
-0.091841 0.028545 0.441250 0.391421 -0.351232 -0.850545 84 85 76 255 3
-0.039396 0.028316 0.437706 -0.114373 -0.669661 -0.733807 114 80 54 255 2
-0.038630 0.028206 0.436011 -0.102878 -0.676350 -0.729361 116 81 56 255 2
-0.037921 0.028135 0.434913 -0.095350 -0.682063 -0.725050 119 87 61 255 2
-0.037239 0.028082 0.434085 -0.088845 -0.686777 -0.721418 126 95 67 255 2
-0.036589 0.028052 0.433623 -0.082931 -0.688451 -0.720526 129 101 73 255 2
