ply
format ascii 1.0
comment Created by labeled_geometry.py
element vertex 658
property float x
property float y
property float z
property float nx
property float ny
property float nz
property uchar red
property uchar green
property uchar blue
property uchar alpha
property uchar label
end_header
-0.055449 0.067897 0.402327 0.411590 -0.349974 -0.841494 116 87 65 255 3
-0.054937 0.067963 0.402721 0.436789 -0.348652 -0.829251 115 86 63 255 3
-0.054443 0.068054 0.403259 0.460142 -0.348567 -0.816560 113 84 61 255 3
-0.053992 0.068201 0.404128 0.488649 -0.345935 -0.800969 111 82 59 255 3
-0.053569 0.068386 0.405226 0.510863 -0.344249 -0.787726 100 73 53 255 3
-0.053454 0.068973 0.408704 0.536123 -0.341597 -0.771935 87 62 45 255 3
-0.052936 0.069046 0.409139 0.538860 -0.339601 -0.770909 77 55 39 255 3
-0.052416 0.069120 0.409574 0.539405 -0.338739 -0.770907 74 54 39 255 3
-0.051900 0.069200 0.410050 0.532663 -0.337791 -0.775995 74 56 41 255 3
-0.051386 0.069284 0.410547 0.530325 -0.332165 -0.780014 74 57 42 255 3
-0.050867 0.069364 0.411023 0.522169 -0.329300 -0.786703 74 58 43 255 3
-0.050350 0.069448 0.411520 0.517174 -0.319987 -0.793813 75 60 45 255 3
-0.049851 0.069560 0.412182 0.511940 -0.309795 -0.801215 73 61 46 255 3
-0.049368 0.069696 0.412990 0.503963 -0.294733 -0.811883 70 59 45 255 3
-0.048890 0.069843 0.413860 0.493621 -0.280328 -0.823258 72 62 47 255 3
-0.048424 0.070011 0.414853 0.484282 -0.258937 -0.835717 69 63 48 255 3
-0.052611 0.076992 0.456221 -0.739169 -0.671341 -0.054137 67 64 49 255 3
-0.014671 0.070423 0.417296 0.000230 0.448991 -0.893536 77 77 66 255 3
-0.014081 0.070406 0.417193 0.012026 0.443450 -0.896218 79 79 68 255 3
-0.013524 0.070559 0.418104 0.018995 0.446854 -0.894405 80 79 68 255 3
-0.012871 0.070206 0.416013 0.042137 0.408806 -0.911648 76 76 65 255 3
-0.012357 0.070612 0.418414 0.039581 0.440162 -0.897046 77 77 67 255 3
-0.011786 0.070713 0.419015 0.045375 0.445095 -0.894333 78 79 68 255 3
-0.011212 0.070814 0.419615 0.050290 0.440292 -0.896445 74 75 65 255 3
-0.010637 0.070916 0.420216 0.053030 0.434182 -0.899263 72 73 63 255 3
-0.010061 0.071021 0.420837 0.056152 0.436249 -0.898072 75 76 66 255 3
-0.009455 0.070909 0.420174 0.064580 0.412607 -0.908617 76 76 66 255 3
-0.008858 0.070867 0.419926 0.069555 0.393086 -0.916867 76 77 65 255 3
-0.008259 0.070793 0.419491 0.066993 0.382714 -0.921435 72 70 60 255 3
-0.007782 0.071831 0.425640 0.049493 0.392843 -0.918273 61 53 42 255 3
-0.007182 0.071817 0.425557 0.047648 0.375769 -0.925487 59 45 32 255 3
-0.006582 0.071807 0.425495 0.048014 0.349009 -0.935889 62 46 33 255 3
-0.005982 0.071779 0.425330 0.043472 0.325449 -0.944560 62 46 32 255 3
-0.005465 0.072862 0.431748 0.055476 0.118585 -0.991393 63 46 32 255 3
-0.004812 0.072181 0.427711 0.040205 0.251002 -0.967151 65 48 34 255 3
-0.004207 0.072118 0.427338 0.032411 0.219632 -0.975044 64 47 33 255 3
-0.003603 0.072055 0.426965 0.023741 0.201701 -0.979159 63 47 33 255 3
-0.003002 0.072048 0.426924 0.016714 0.169607 -0.985370 62 46 33 255 3
-0.002426 0.072789 0.431313 0.027759 -0.094149 -0.995171 61 47 34 255 3
0.007699 0.076992 0.456221 0.803088 -0.347958 -0.483709 62 57 43 255 3
0.007653 0.070647 0.418622 -0.376049 -0.022900 -0.926317 67 58 43 255 3
0.008227 0.070521 0.417876 -0.386214 -0.033451 -0.921802 70 58 42 255 3
0.008799 0.070395 0.417131 -0.386742 -0.049345 -0.920867 73 59 42 255 3
0.009370 0.070276 0.416427 -0.395474 -0.036724 -0.917743 74 58 41 255 3
0.009944 0.070192 0.415930 -0.397961 -0.040998 -0.916486 74 57 40 255 3
0.010516 0.070109 0.415433 -0.403341 -0.049002 -0.913737 76 58 41 255 3
0.011080 0.069979 0.414667 -0.407738 -0.068544 -0.910523 75 56 39 255 3
0.011648 0.069885 0.414108 -0.413948 -0.090256 -0.905815 74 55 38 255 3
0.012215 0.069801 0.413611 -0.414596 -0.118297 -0.902284 74 54 37 255 3
0.012783 0.069724 0.413156 -0.423408 -0.149886 -0.893454 76 55 37 255 3
0.013350 0.069654 0.412741 -0.427872 -0.163850 -0.888864 80 57 40 255 3
0.013918 0.069592 0.412369 -0.433262 -0.188121 -0.881416 80 56 39 255 3
0.014485 0.069529 0.411996 -0.439928 -0.209684 -0.873210 80 54 38 255 3
0.015051 0.069466 0.411623 -0.442758 -0.234023 -0.865563 80 55 38 255 3
0.015615 0.069399 0.411230 -0.447854 -0.250162 -0.858397 81 56 39 255 3
0.016179 0.069340 0.410878 -0.452640 -0.268365 -0.850351 82 57 40 255 3
0.016742 0.069277 0.410505 -0.453538 -0.288387 -0.843289 83 58 40 255 3
0.017302 0.069207 0.410091 -0.457987 -0.304673 -0.835118 84 59 40 255 3
0.017861 0.069141 0.409698 -0.462937 -0.317540 -0.827561 86 59 40 255 3
0.018421 0.069078 0.409325 -0.466635 -0.330708 -0.820295 86 58 40 255 3
0.018979 0.069015 0.408953 -0.469363 -0.342927 -0.813695 87 59 42 255 3
0.019536 0.068952 0.408580 -0.473998 -0.353941 -0.806258 89 60 43 255 3
0.020094 0.068893 0.408228 -0.478156 -0.363225 -0.799646 89 61 43 255 3
0.020649 0.068830 0.407855 -0.482173 -0.371683 -0.793323 88 60 42 255 3
0.021204 0.068770 0.407503 -0.483505 -0.380277 -0.788424 89 60 42 255 3
0.021757 0.068708 0.407131 -0.485388 -0.389024 -0.782981 89 60 43 255 3
0.022311 0.068648 0.406779 -0.485331 -0.392271 -0.781394 89 60 43 255 3
0.022857 0.068571 0.406323 -0.479362 -0.399976 -0.781173 88 60 42 255 3
0.023401 0.068491 0.405847 -0.472703 -0.404589 -0.782854 90 60 42 255 3
0.023944 0.068411 0.405371 -0.457612 -0.411679 -0.788107 91 61 43 255 3
0.024486 0.068334 0.404915 -0.436875 -0.418264 -0.796364 91 61 42 255 3
0.025025 0.068250 0.404418 -0.410173 -0.419005 -0.810057 91 61 42 255 3
0.025561 0.068162 0.403901 -0.381844 -0.425664 -0.820369 94 63 42 255 3
0.026099 0.068086 0.403445 -0.350367 -0.424898 -0.834689 95 63 43 255 3
0.026635 0.068005 0.402969 -0.320903 -0.421609 -0.848096 98 66 45 255 3
0.027171 0.067928 0.402514 -0.293427 -0.418353 -0.859582 99 68 46 255 3
0.027705 0.067848 0.402037 -0.278084 -0.419790 -0.863971 103 71 49 255 3
0.028237 0.067768 0.401561 -0.273761 -0.414545 -0.867875 104 73 52 255 3
0.028773 0.067701 0.401168 -0.265168 -0.410516 -0.872446 107 76 55 255 3
0.029299 0.067614 0.400650 -0.255460 -0.408864 -0.876111 109 78 57 255 3
0.029823 0.067523 0.400112 -0.251203 -0.405840 -0.878744 112 80 58 255 3
0.030373 0.067495 0.399946 -0.249285 -0.406745 -0.878872 112 79 58 255 3
0.030921 0.067464 0.399760 -0.244451 -0.404374 -0.881320 111 79 58 255 3
0.031468 0.067432 0.399573 -0.239421 -0.405993 -0.881956 111 78 57 255 3
0.032034 0.067439 0.399615 -0.238288 -0.403851 -0.883246 108 77 57 255 3
0.032606 0.067460 0.399739 -0.238775 -0.403070 -0.883471 108 76 57 255 3
0.033182 0.067488 0.399905 -0.237826 -0.403626 -0.883473 106 75 56 255 3
0.033775 0.067551 0.400277 -0.240203 -0.401055 -0.884001 102 71 54 255 3
0.034372 0.067617 0.400671 -0.242629 -0.403953 -0.882017 97 66 50 255 3
0.034974 0.067691 0.401106 -0.243672 -0.403618 -0.881882 94 61 47 255 3
0.035587 0.067785 0.401665 -0.245799 -0.404010 -0.881112 91 57 44 255 3
0.036200 0.067876 0.402203 -0.248757 -0.402737 -0.880865 89 55 42 255 3
0.036821 0.067977 0.402803 -0.249226 -0.406967 -0.878786 91 56 42 255 3
0.037455 0.068100 0.403528 -0.254200 -0.407030 -0.877331 94 61 47 255 3
0.038219 0.068452 0.405619 -0.266785 -0.409238 -0.872554 89 72 57 255 3
-0.067480 0.068614 0.403217 0.260416 -0.362019 -0.895056 83 59 44 255 3
-0.066755 0.068452 0.402265 0.250500 -0.359802 -0.898772 89 57 41 255 3
-0.066084 0.068343 0.401623 0.248683 -0.359041 -0.899581 92 60 42 255 3
-0.065441 0.068262 0.401147 0.247351 -0.356362 -0.901013 91 60 43 255 3
-0.064817 0.068198 0.400774 0.243787 -0.354659 -0.902654 92 63 46 255 3
-0.064210 0.068153 0.400505 0.243829 -0.354522 -0.902697 94 64 45 255 3
-0.063607 0.068110 0.400257 0.239455 -0.353209 -0.904381 94 64 45 255 3
-0.063021 0.068086 0.400112 0.239927 -0.352074 -0.904698 100 68 47 255 3
-0.062439 0.068065 0.399988 0.238179 -0.350746 -0.905676 102 70 49 255 3
-0.061864 0.068050 0.399905 0.241994 -0.349664 -0.905082 104 74 53 255 3
-0.061298 0.068047 0.399884 0.246738 -0.352241 -0.902799 106 77 55 255 3
-0.060733 0.068043 0.399863 0.250073 -0.349064 -0.903116 106 79 56 255 3
-0.060174 0.068047 0.399884 0.249994 -0.349352 -0.903026 108 81 58 255 3
-0.059630 0.068068 0.400008 0.253404 -0.351110 -0.901393 110 82 59 255 3
-0.059086 0.068089 0.400133 0.257961 -0.350234 -0.900440 112 83 59 255 3
-0.058553 0.068124 0.400340 0.274652 -0.350323 -0.895455 114 84 60 255 3
-0.058026 0.068167 0.400588 0.286654 -0.352060 -0.891001 115 84 60 255 3
-0.057499 0.068209 0.400836 0.314035 -0.349038 -0.882924 115 85 62 255 3
-0.056970 0.068251 0.401085 0.334494 -0.348040 -0.875775 115 86 63 255 3
-0.056441 0.068294 0.401333 0.356226 -0.346636 -0.867725 115 86 64 255 3
-0.055914 0.068339 0.401603 0.375394 -0.347238 -0.859363 116 87 65 255 3
-0.055401 0.068403 0.401975 0.403214 -0.346916 -0.846798 117 88 66 255 3
-0.054889 0.068470 0.402369 0.425354 -0.346957 -0.835880 117 88 65 255 3
-0.054376 0.068537 0.402762 0.448245 -0.348176 -0.823316 114 85 63 255 3
-0.053901 0.068653 0.403445 0.471621 -0.350320 -0.809228 111 83 60 255 3
-0.053427 0.068773 0.404149 0.493144 -0.352199 -0.795465 105 79 57 255 3
-0.053024 0.068988 0.405412 0.513597 -0.347957 -0.784311 100 74 54 255 3
-0.053115 0.069858 0.410526 0.539867 -0.340766 -0.769689 85 64 47 255 3
-0.052628 0.069978 0.411230 0.536864 -0.339756 -0.772233 75 62 47 255 3
-0.052186 0.070161 0.412307 0.530206 -0.337549 -0.777780 72 65 50 255 3
-0.057025 0.077528 0.455599 0.581854 0.521451 -0.624128 68 65 50 255 3
0.011533 0.077528 0.455599 0.788781 -0.394135 -0.471680 65 61 46 255 3
0.011121 0.070823 0.416199 -0.409325 -0.056431 -0.910642 70 61 45 255 3
0.011684 0.070689 0.415412 -0.415326 -0.080897 -0.906068 75 59 42 255 3
0.012245 0.070555 0.414626 -0.424516 -0.099859 -0.899897 76 58 41 255 3
0.012813 0.070471 0.414129 -0.423115 -0.141664 -0.894933 76 56 40 255 3
0.013379 0.070383 0.413611 -0.431757 -0.166222 -0.886542 76 55 39 255 3
0.013943 0.070295 0.413093 -0.437429 -0.188607 -0.879252 76 54 38 255 3
0.014506 0.070210 0.412597 -0.443813 -0.215223 -0.869890 77 54 38 255 3
0.015068 0.070126 0.412100 -0.449576 -0.236090 -0.861477 77 55 38 255 3
0.015632 0.070055 0.411686 -0.451642 -0.258309 -0.853988 77 55 38 255 3
0.016196 0.069992 0.411313 -0.455192 -0.276258 -0.846452 79 55 39 255 3
0.016759 0.069925 0.410919 -0.458969 -0.291682 -0.839207 80 57 40 255 3
0.017319 0.069854 0.410505 -0.465396 -0.306363 -0.830391 80 56 39 255 3
0.017879 0.069787 0.410112 -0.467274 -0.321747 -0.823489 83 58 40 255 3
0.018438 0.069717 0.409698 -0.471730 -0.334433 -0.815859 83 58 40 255 3
0.018996 0.069654 0.409325 -0.475878 -0.343188 -0.809791 85 58 41 255 3
0.019554 0.069590 0.408953 -0.480762 -0.353604 -0.802392 86 59 41 255 3
0.020109 0.069520 0.408538 -0.484976 -0.362230 -0.795982 86 58 41 255 3
0.020662 0.069446 0.408104 -0.487788 -0.369904 -0.790717 87 59 42 255 3
0.021214 0.069375 0.407690 -0.489134 -0.377988 -0.786049 86 58 41 255 3
0.021766 0.069308 0.407296 -0.491638 -0.383485 -0.781813 88 59 42 255 3
0.022319 0.069245 0.406924 -0.490821 -0.390536 -0.778830 86 58 41 255 3
0.022864 0.069164 0.406447 -0.486645 -0.392983 -0.780219 87 58 41 255 3
0.023408 0.069083 0.405971 -0.481258 -0.395009 -0.782533 88 58 41 255 3
0.023952 0.069005 0.405516 -0.464042 -0.402292 -0.789193 88 58 40 255 3
0.024492 0.068921 0.405019 -0.447381 -0.403108 -0.798345 88 58 39 255 3
0.025031 0.068836 0.404522 -0.420262 -0.408636 -0.810183 88 58 38 255 3
0.025569 0.068752 0.404025 -0.388382 -0.410185 -0.825171 92 61 40 255 3
0.026106 0.068671 0.403549 -0.351867 -0.413145 -0.839941 98 66 46 255 3
0.026605 0.068494 0.402514 -0.309680 -0.410478 -0.857675 105 73 53 255 3
0.027139 0.068413 0.402037 -0.289785 -0.410622 -0.864531 112 79 57 255 3
0.027672 0.068332 0.401561 -0.272892 -0.412257 -0.869238 112 78 56 255 3
0.028204 0.068255 0.401106 -0.267378 -0.405341 -0.874190 112 77 56 255 3
0.028734 0.068174 0.400629 -0.255167 -0.405271 -0.877864 112 78 56 255 3
0.029266 0.068100 0.400195 -0.250785 -0.403234 -0.880062 111 78 57 255 3
0.029812 0.068061 0.399967 -0.248076 -0.399124 -0.882699 112 79 57 255 3
0.030360 0.068029 0.399781 -0.244832 -0.399730 -0.883331 110 77 56 255 3
0.030910 0.068001 0.399615 -0.242901 -0.397116 -0.885041 111 78 57 255 3
0.031462 0.067980 0.399491 -0.237240 -0.395864 -0.887135 111 78 57 255 3
0.032030 0.067994 0.399573 -0.235545 -0.397869 -0.886690 109 77 57 255 3
0.032604 0.068019 0.399718 -0.233283 -0.396810 -0.887762 108 76 57 255 3
0.033178 0.068043 0.399863 -0.234076 -0.398010 -0.887016 105 75 57 255 3
0.033772 0.068107 0.400236 -0.234063 -0.398621 -0.886745 102 72 55 255 3
0.034367 0.068170 0.400609 -0.238587 -0.397235 -0.886161 98 67 51 255 3
0.034965 0.068237 0.401002 -0.240339 -0.397427 -0.885601 92 60 46 255 3
0.035578 0.068332 0.401561 -0.241605 -0.399793 -0.884190 90 57 44 255 3
0.036189 0.068420 0.402079 -0.242379 -0.400850 -0.883500 88 54 40 255 3
0.036810 0.068523 0.402679 -0.246280 -0.398908 -0.883300 89 55 41 255 3
0.037451 0.068660 0.403487 -0.251482 -0.403330 -0.879819 90 59 45 255 3
0.038112 0.068829 0.404480 -0.256188 -0.403589 -0.878341 92 71 57 255 3
-0.067633 0.069338 0.404128 0.267001 -0.358291 -0.894616 79 63 48 255 3
-0.066803 0.069068 0.402555 0.253881 -0.357432 -0.898770 86 58 41 255 3
-0.066111 0.068936 0.401789 0.244697 -0.353768 -0.902758 89 60 41 255 3
-0.065461 0.068847 0.401271 0.242836 -0.352246 -0.903855 88 60 43 255 3
-0.064830 0.068776 0.400857 0.239886 -0.351348 -0.904992 91 62 45 255 3
-0.064220 0.068727 0.400567 0.237992 -0.349463 -0.906221 94 64 46 255 3
-0.063614 0.068680 0.400298 0.237348 -0.347218 -0.907251 95 64 45 255 3
-0.063028 0.068656 0.400153 0.235134 -0.346091 -0.908258 97 66 46 255 3
-0.062443 0.068631 0.400008 0.234175 -0.344907 -0.908956 100 70 49 255 3
-0.061861 0.068609 0.399884 0.236168 -0.341818 -0.909607 103 73 52 255 3
-0.061295 0.068606 0.399863 0.237625 -0.342573 -0.908943 104 75 54 255 3
-0.060730 0.068602 0.399843 0.241768 -0.342746 -0.907785 106 78 56 255 3
-0.060168 0.068602 0.399843 0.246132 -0.343955 -0.906153 108 79 56 255 3
-0.059624 0.068624 0.399967 0.248274 -0.343641 -0.905688 110 82 58 255 3
-0.059080 0.068645 0.400091 0.255009 -0.342835 -0.904121 111 82 58 255 3
-0.058535 0.068666 0.400215 0.268578 -0.341575 -0.900662 113 83 59 255 3
-0.058002 0.068702 0.400422 0.286197 -0.343957 -0.894307 114 83 59 255 3
-0.057472 0.068741 0.400650 0.308429 -0.341904 -0.887679 115 84 61 255 3
-0.056941 0.068780 0.400878 0.327163 -0.343221 -0.880434 116 86 63 255 3
-0.056412 0.068822 0.401126 0.350553 -0.344930 -0.870710 115 86 64 255 3
-0.055879 0.068862 0.401354 0.370094 -0.345500 -0.862358 116 87 65 255 3
-0.055358 0.068915 0.401665 0.394156 -0.347821 -0.850683 117 88 66 255 3
-0.054844 0.068979 0.402037 0.417690 -0.349736 -0.838582 117 88 65 255 3
-0.054331 0.069046 0.402431 0.437732 -0.352511 -0.827119 116 86 63 255 3
-0.053818 0.069114 0.402824 0.456684 -0.355022 -0.815720 116 86 63 255 3
-0.053347 0.069238 0.403549 0.475324 -0.358206 -0.803589 111 82 59 255 3
-0.052864 0.069348 0.404191 0.493979 -0.358881 -0.791953 106 77 57 255 3
-0.052437 0.069536 0.405288 0.511273 -0.357658 -0.781461 99 73 54 255 3
0.012891 0.071487 0.416655 -0.425049 -0.106381 -0.898897 66 57 43 255 3
0.013412 0.071142 0.414646 -0.431184 -0.164997 -0.887049 71 56 41 255 3
0.013978 0.071053 0.414129 -0.439347 -0.186680 -0.878707 75 56 40 255 3
0.014541 0.070961 0.413590 -0.444360 -0.210779 -0.870699 76 55 39 255 3
0.015104 0.070872 0.413073 -0.450776 -0.231950 -0.861974 75 54 39 255 3
0.015666 0.070787 0.412576 -0.456205 -0.253619 -0.852968 75 54 39 255 3
0.016227 0.070702 0.412079 -0.460284 -0.274211 -0.844362 73 53 38 255 3
0.016785 0.070613 0.411561 -0.464468 -0.292842 -0.835771 73 54 38 255 3
0.017341 0.070520 0.411023 -0.470207 -0.308608 -0.826841 75 55 39 255 3
0.017897 0.070435 0.410526 -0.473977 -0.322196 -0.819473 79 57 39 255 3
0.018456 0.070364 0.410112 -0.475896 -0.335794 -0.812875 80 57 39 255 3
0.019014 0.070293 0.409698 -0.480549 -0.345898 -0.805871 83 58 40 255 3
0.019572 0.070229 0.409325 -0.486297 -0.354524 -0.798641 85 58 40 255 3
0.020126 0.070155 0.408890 -0.490798 -0.361907 -0.792553 86 58 41 255 3
0.020680 0.070084 0.408476 -0.493646 -0.368907 -0.787541 85 57 40 255 3
0.021233 0.070012 0.408062 -0.496457 -0.375075 -0.782847 85 57 40 255 3
0.021784 0.069938 0.407627 -0.496962 -0.379055 -0.780606 85 57 40 255 3
0.022331 0.069856 0.407151 -0.496865 -0.384434 -0.778033 84 57 40 255 3
0.022873 0.069764 0.406613 -0.495147 -0.386100 -0.778303 85 56 41 255 3
0.023417 0.069679 0.406116 -0.485323 -0.390270 -0.782401 85 56 39 255 3
0.023960 0.069597 0.405640 -0.471110 -0.392631 -0.789871 84 55 38 255 3
0.024500 0.069512 0.405143 -0.451253 -0.394148 -0.800636 87 56 38 255 3
0.025040 0.069430 0.404667 -0.425003 -0.396499 -0.813733 92 61 42 255 3
0.025567 0.069316 0.404004 -0.391784 -0.396436 -0.830268 105 72 52 255 3
0.026035 0.069050 0.402451 -0.342578 -0.396141 -0.851888 113 80 59 255 3
0.026567 0.068961 0.401934 -0.310614 -0.398384 -0.863023 114 81 60 255 3
0.027096 0.068869 0.401395 -0.282968 -0.400278 -0.871612 115 82 61 255 3
0.027628 0.068787 0.400919 -0.265482 -0.400574 -0.876961 114 80 58 255 3
0.028171 0.068737 0.400629 -0.256475 -0.397052 -0.881232 115 80 57 255 3
0.028715 0.068691 0.400360 -0.252538 -0.394965 -0.883305 114 79 57 255 3
0.029260 0.068648 0.400112 -0.247198 -0.394297 -0.885112 112 79 57 255 3
0.029803 0.068602 0.399843 -0.244455 -0.391465 -0.887128 111 78 56 255 3
0.030351 0.068570 0.399656 -0.240005 -0.391274 -0.888427 110 77 56 255 3
0.030898 0.068538 0.399470 -0.233785 -0.392844 -0.889392 109 76 56 255 3
0.031460 0.068538 0.399470 -0.231210 -0.390602 -0.891051 109 76 56 255 3
0.032027 0.068549 0.399532 -0.228640 -0.389960 -0.891995 108 76 56 255 3
0.032601 0.068574 0.399677 -0.228948 -0.391902 -0.891064 107 76 57 255 3
0.033176 0.068602 0.399843 -0.230556 -0.390248 -0.891375 104 74 56 255 3
0.033767 0.068659 0.400174 -0.231495 -0.392732 -0.890040 101 72 54 255 3
0.034360 0.068719 0.400526 -0.233033 -0.394120 -0.889025 97 67 51 255 3
0.034955 0.068783 0.400899 -0.235732 -0.394162 -0.888294 93 61 47 255 3
0.035569 0.068879 0.401458 -0.236927 -0.393379 -0.888324 91 57 43 255 3
0.036178 0.068965 0.401954 -0.240749 -0.395023 -0.886564 89 54 40 255 3
0.036798 0.069068 0.402555 -0.241872 -0.395502 -0.886045 87 54 39 255 3
0.037447 0.069220 0.403445 -0.248733 -0.396471 -0.883710 89 60 45 255 3
0.038130 0.069430 0.404667 -0.255059 -0.399961 -0.880328 94 72 58 255 3
-0.066892 0.069727 0.403093 0.251213 -0.353344 -0.901132 83 60 43 255 3
-0.066148 0.069541 0.402017 0.240004 -0.348626 -0.906012 88 62 43 255 3
-0.065485 0.069437 0.401416 0.238400 -0.347737 -0.906777 87 61 44 255 3
-0.064847 0.069358 0.400961 0.233467 -0.342983 -0.909866 90 62 45 255 3
-0.064230 0.069301 0.400629 0.232407 -0.343982 -0.909760 94 64 46 255 3
-0.063624 0.069254 0.400360 0.228887 -0.342742 -0.911119 94 64 46 255 3
-0.063031 0.069222 0.400174 0.230178 -0.339998 -0.911822 97 66 47 255 3
-0.062446 0.069197 0.400029 0.229117 -0.337885 -0.912874 100 69 50 255 3
-0.061861 0.069172 0.399884 0.229682 -0.337774 -0.912773 102 71 51 255 3
-0.061295 0.069168 0.399863 0.229875 -0.336409 -0.913228 104 75 53 255 3
-0.060730 0.069165 0.399843 0.233638 -0.334648 -0.912920 105 77 55 255 3
-0.060164 0.069161 0.399822 0.236138 -0.334721 -0.912250 107 79 56 255 3
-0.059618 0.069179 0.399925 0.243409 -0.336013 -0.909861 109 81 58 255 3
-0.059073 0.069200 0.400050 0.252569 -0.335342 -0.907609 111 81 58 255 3
-0.058523 0.069215 0.400133 0.263594 -0.335020 -0.904588 114 82 59 255 3
-0.057975 0.069233 0.400236 0.285661 -0.336608 -0.897270 115 83 60 255 3
-0.057442 0.069268 0.400443 0.301666 -0.337646 -0.891624 117 85 62 255 3
-0.056911 0.069308 0.400671 0.325525 -0.339115 -0.882629 116 85 63 255 3
-0.056380 0.069347 0.400899 0.345701 -0.341255 -0.874092 117 87 65 255 3
-0.055851 0.069390 0.401147 0.362793 -0.344189 -0.865977 117 87 65 255 3
-0.055318 0.069430 0.401375 0.382965 -0.348727 -0.855411 117 88 66 255 3
-0.054801 0.069490 0.401727 0.407052 -0.352644 -0.842586 118 88 66 255 3
-0.054287 0.069555 0.402099 0.423257 -0.356471 -0.832935 118 87 65 255 3
-0.053771 0.069619 0.402472 0.436243 -0.360200 -0.824590 118 87 64 255 3
-0.053265 0.069698 0.402928 0.457085 -0.363253 -0.811863 117 87 63 255 3
-0.052785 0.069813 0.403590 0.472382 -0.367163 -0.801278 110 81 60 255 3
-0.052309 0.069935 0.404294 0.493732 -0.368522 -0.787668 111 78 58 255 3
-0.051915 0.070171 0.405661 0.510647 -0.366557 -0.777738 92 77 58 255 3
0.015974 0.078594 0.454357 0.776328 -0.456502 -0.434651 68 59 45 255 3
0.015182 0.071822 0.415205 -0.445350 -0.213390 -0.869556 69 57 42 255 3
0.015709 0.071564 0.413715 -0.456500 -0.251949 -0.853305 70 56 41 255 3
0.016265 0.071449 0.413052 -0.463217 -0.272338 -0.843363 71 56 42 255 3
0.016825 0.071360 0.412534 -0.466762 -0.291884 -0.834827 71 56 41 255 3
0.017383 0.071270 0.412017 -0.470162 -0.308626 -0.826860 74 57 41 255 3
0.017940 0.071181 0.411499 -0.474838 -0.322541 -0.818838 76 57 40 255 3
0.018493 0.071081 0.410919 -0.480411 -0.335428 -0.810366 77 57 39 255 3
0.019044 0.070984 0.410360 -0.485198 -0.346266 -0.802921 79 57 39 255 3
0.019594 0.070884 0.409781 -0.492024 -0.354064 -0.795331 81 57 40 255 3
0.020145 0.070794 0.409263 -0.494778 -0.360633 -0.790657 81 56 39 255 3
0.020698 0.070719 0.408828 -0.498966 -0.368646 -0.784304 83 57 40 255 3
0.021252 0.070647 0.408414 -0.502316 -0.370364 -0.781350 83 56 39 255 3
0.021803 0.070572 0.407979 -0.501837 -0.376500 -0.778721 84 57 40 255 3
0.022348 0.070483 0.407462 -0.503728 -0.378389 -0.776582 83 56 40 255 3
0.022891 0.070389 0.406924 -0.499811 -0.380211 -0.778221 83 56 40 255 3
0.023436 0.070307 0.406447 -0.491704 -0.381145 -0.782915 86 57 42 255 3
0.023980 0.070228 0.405992 -0.480080 -0.382142 -0.789614 91 61 44 255 3
0.024446 0.069927 0.404253 -0.439531 -0.383320 -0.812328 105 72 54 255 3
0.024971 0.069806 0.403549 -0.411238 -0.382784 -0.827260 115 81 61 255 3
0.025467 0.069609 0.402410 -0.363332 -0.382691 -0.849434 115 81 61 255 3
0.025999 0.069519 0.401892 -0.333464 -0.384981 -0.860576 115 82 62 255 3
0.026533 0.069437 0.401416 -0.309042 -0.386516 -0.868964 111 80 59 255 3
0.027068 0.069362 0.400981 -0.282711 -0.389265 -0.876668 112 80 59 255 3
0.027616 0.069322 0.400754 -0.264345 -0.388871 -0.882554 112 80 58 255 3
0.028162 0.069279 0.400505 -0.251938 -0.388199 -0.886470 112 80 58 255 3
0.028708 0.069236 0.400257 -0.248610 -0.390136 -0.886559 111 79 57 255 3
0.029254 0.069197 0.400029 -0.243815 -0.386694 -0.889394 110 78 57 255 3
0.029796 0.069150 0.399760 -0.240715 -0.386405 -0.890364 110 78 57 255 3
0.030340 0.069107 0.399511 -0.233870 -0.384831 -0.892866 109 77 56 255 3
0.030894 0.069089 0.399408 -0.226805 -0.383493 -0.895261 108 76 55 255 3
0.031459 0.069096 0.399449 -0.226523 -0.382981 -0.895552 108 76 55 255 3
0.032025 0.069107 0.399511 -0.225363 -0.383884 -0.895458 107 76 57 255 3
0.032599 0.069132 0.399656 -0.226150 -0.385912 -0.894387 106 75 56 255 3
0.033175 0.069161 0.399822 -0.227260 -0.387430 -0.893449 103 74 55 255 3
0.033763 0.069215 0.400133 -0.229140 -0.385405 -0.893844 101 72 54 255 3
0.034354 0.069272 0.400464 -0.229155 -0.386741 -0.893263 97 66 50 255 3
0.034946 0.069329 0.400795 -0.230704 -0.389164 -0.891811 93 61 47 255 3
0.035558 0.069422 0.401333 -0.234200 -0.389834 -0.890606 91 59 45 255 3
0.036169 0.069512 0.401851 -0.235424 -0.388711 -0.890774 89 54 40 255 3
0.036791 0.069619 0.402472 -0.239091 -0.391748 -0.888464 86 54 40 255 3
0.037441 0.069777 0.403383 -0.246582 -0.392744 -0.885974 89 60 45 255 3
0.038149 0.070035 0.404874 -0.252922 -0.394676 -0.883324 91 72 57 255 3
-0.075307 0.079136 0.453798 0.567868 0.552551 -0.610093 81 65 50 255 3
-0.066199 0.070160 0.402327 0.239106 -0.346231 -0.907167 84 60 43 255 3
-0.065515 0.070034 0.401603 0.231957 -0.341897 -0.910660 85 60 43 255 3
-0.064864 0.069940 0.401064 0.226185 -0.338932 -0.913217 88 61 44 255 3
-0.064243 0.069878 0.400712 0.222670 -0.337972 -0.914436 91 62 44 255 3
-0.063630 0.069824 0.400402 0.222809 -0.332943 -0.916245 93 63 45 255 3
-0.063035 0.069788 0.400195 0.220827 -0.332884 -0.916746 95 64 46 255 3
-0.062449 0.069763 0.400050 0.223187 -0.332883 -0.916175 98 68 48 255 3
-0.061864 0.069738 0.399905 0.223989 -0.330359 -0.916892 100 70 50 255 3
-0.061295 0.069730 0.399863 0.223594 -0.329203 -0.917405 103 73 52 255 3
-0.060730 0.069727 0.399843 0.225916 -0.328687 -0.917021 104 75 54 255 3
-0.060164 0.069723 0.399822 0.229865 -0.328578 -0.916078 106 78 56 255 3
-0.059605 0.069727 0.399843 0.233990 -0.328478 -0.915069 107 79 56 255 3
-0.059058 0.069745 0.399946 0.249331 -0.327615 -0.911319 110 81 58 255 3
-0.058511 0.069763 0.400050 0.258533 -0.327272 -0.908875 113 83 60 255 3
-0.057960 0.069777 0.400133 0.282255 -0.331362 -0.900295 115 84 60 255 3
-0.057415 0.069799 0.400257 0.298131 -0.332479 -0.894749 116 84 61 255 3
-0.056885 0.069839 0.400484 0.317978 -0.336688 -0.886302 116 85 62 255 3
-0.056354 0.069878 0.400712 0.337791 -0.340406 -0.877508 116 86 63 255 3
-0.055819 0.069915 0.400919 0.356736 -0.344488 -0.868371 117 87 65 255 3
-0.055289 0.069958 0.401168 0.373254 -0.348959 -0.859598 117 87 65 255 3
-0.054762 0.070005 0.401437 0.397498 -0.354529 -0.846348 117 87 65 255 3
-0.054248 0.070070 0.401810 0.413609 -0.361242 -0.835722 118 87 64 255 3
-0.053732 0.070135 0.402182 0.427604 -0.366615 -0.826286 118 86 64 255 3
-0.053213 0.070196 0.402534 0.440550 -0.371195 -0.817392 117 86 63 255 3
-0.052718 0.070290 0.403073 0.456170 -0.374234 -0.807377 115 85 63 255 3
-0.052242 0.070413 0.403776 0.474950 -0.376219 -0.795539 112 82 61 255 3
-0.051761 0.070532 0.404460 0.491224 -0.377919 -0.784778 107 83 61 255 3
0.018506 0.079129 0.453757 0.799577 -0.482555 -0.357515 62 60 46 255 3
0.017495 0.072312 0.414667 -0.464595 -0.290828 -0.836403 66 60 46 255 3
0.018007 0.072027 0.413031 -0.474031 -0.317360 -0.821327 71 60 44 255 3
0.018538 0.071835 0.411934 -0.480507 -0.335320 -0.810354 74 59 42 255 3
0.019093 0.071745 0.411416 -0.487824 -0.344783 -0.801968 76 58 41 255 3
0.019643 0.071640 0.410816 -0.491676 -0.355778 -0.794781 78 57 40 255 3
0.020193 0.071539 0.410236 -0.498626 -0.359977 -0.788536 79 57 40 255 3
0.020739 0.071435 0.409636 -0.501354 -0.367494 -0.783321 79 56 40 255 3
0.021284 0.071330 0.409035 -0.507769 -0.370682 -0.777667 80 56 39 255 3
0.021828 0.071229 0.408456 -0.508527 -0.373579 -0.775782 80 55 38 255 3
0.022374 0.071139 0.407938 -0.505847 -0.375602 -0.776558 82 56 39 255 3
0.022922 0.071059 0.407483 -0.502634 -0.375906 -0.778495 87 61 44 255 3
0.023424 0.070843 0.406240 -0.491411 -0.371898 -0.787532 103 73 55 255 3
0.023859 0.070442 0.403942 -0.454461 -0.372970 -0.808924 116 84 63 255 3
0.024376 0.070294 0.403093 -0.424342 -0.375137 -0.824140 117 84 63 255 3
0.024901 0.070175 0.402410 -0.393247 -0.373355 -0.840216 115 82 62 255 3
0.025438 0.070095 0.401954 -0.358866 -0.374288 -0.855058 112 80 60 255 3
0.025975 0.070019 0.401520 -0.327185 -0.374114 -0.867750 110 80 60 255 3
0.026511 0.069943 0.401085 -0.303864 -0.377109 -0.874903 110 81 60 255 3
0.027058 0.069900 0.400836 -0.282266 -0.377593 -0.881901 109 80 59 255 3
0.027605 0.069857 0.400588 -0.261389 -0.382298 -0.886298 111 80 59 255 3
0.028151 0.069814 0.400340 -0.247384 -0.380394 -0.891124 110 79 58 255 3
0.028697 0.069774 0.400112 -0.241198 -0.380539 -0.892756 111 79 58 255 3
0.029242 0.069730 0.399863 -0.238530 -0.379424 -0.893947 110 79 57 255 3
0.029786 0.069687 0.399615 -0.232293 -0.377893 -0.896235 108 76 55 255 3
0.030332 0.069651 0.399408 -0.228684 -0.375105 -0.898332 108 76 55 255 3
0.030894 0.069651 0.399408 -0.222065 -0.377748 -0.898885 106 74 54 255 3
0.031457 0.069655 0.399429 -0.221798 -0.378815 -0.898501 106 75 55 255 3
0.032022 0.069662 0.399470 -0.221579 -0.379088 -0.898441 105 75 56 255 3
0.032597 0.069691 0.399636 -0.222309 -0.377019 -0.899130 104 73 55 255 3
0.033171 0.069716 0.399781 -0.220881 -0.377846 -0.899135 102 72 54 255 3
0.033758 0.069767 0.400070 -0.223610 -0.380543 -0.897321 99 70 53 255 3
0.034347 0.069821 0.400381 -0.223684 -0.381723 -0.896801 96 65 49 255 3
0.034939 0.069878 0.400712 -0.224027 -0.381923 -0.896631 94 62 48 255 3
0.035549 0.069969 0.401230 -0.228858 -0.384574 -0.894275 93 60 46 255 3
0.036158 0.070055 0.401727 -0.231991 -0.385748 -0.892961 88 55 41 255 3
0.036787 0.070178 0.402431 -0.234271 -0.386549 -0.892018 86 54 40 255 3
0.037437 0.070337 0.403342 -0.242179 -0.389543 -0.888598 89 60 45 255 3
0.042757 0.079132 0.453778 -0.663188 0.430202 -0.612461 83 73 57 255 3
-0.066305 0.070839 0.402969 0.239629 -0.342526 -0.908435 82 61 45 255 3
-0.065553 0.070639 0.401830 0.226082 -0.337359 -0.913825 85 60 43 255 3
-0.064887 0.070529 0.401209 0.219701 -0.334176 -0.916546 88 61 44 255 3
-0.064260 0.070460 0.400816 0.214255 -0.327899 -0.920096 91 62 44 255 3
-0.063643 0.070402 0.400484 0.213743 -0.327811 -0.920247 92 63 45 255 3
-0.063041 0.070358 0.400236 0.210121 -0.325771 -0.921804 94 64 46 255 3
-0.062452 0.070329 0.400070 0.212967 -0.323623 -0.921908 95 66 47 255 3
-0.061867 0.070304 0.399925 0.213055 -0.322569 -0.922256 98 69 49 255 3
-0.061295 0.070293 0.399863 0.214811 -0.322238 -0.921965 100 71 50 255 3
-0.060727 0.070286 0.399822 0.218615 -0.321042 -0.921488 103 74 53 255 3
-0.060161 0.070282 0.399801 0.225218 -0.323111 -0.919171 105 77 55 255 3
-0.059596 0.070278 0.399781 0.231627 -0.321216 -0.918242 106 79 56 255 3
-0.059046 0.070293 0.399863 0.246713 -0.323248 -0.913588 109 81 58 255 3
-0.058496 0.070307 0.399946 0.256100 -0.323477 -0.910920 111 82 59 255 3
-0.057948 0.070326 0.400050 0.278228 -0.324749 -0.903951 113 83 60 255 3
-0.057398 0.070340 0.400133 0.295450 -0.328231 -0.897203 114 83 59 255 3
-0.056858 0.070369 0.400298 0.305944 -0.332115 -0.892243 115 84 62 255 3
-0.056327 0.070409 0.400526 0.332185 -0.340314 -0.879682 115 86 64 255 3
-0.055796 0.070449 0.400754 0.351096 -0.345749 -0.870166 117 87 65 255 3
-0.055261 0.070486 0.400961 0.363215 -0.351158 -0.862996 116 86 64 255 3
-0.054728 0.070526 0.401188 0.385581 -0.358159 -0.850323 118 87 65 255 3
-0.054206 0.070580 0.401499 0.397095 -0.365782 -0.841735 119 87 64 255 3
-0.053691 0.070646 0.401872 0.413809 -0.372145 -0.830825 119 86 64 255 3
-0.053172 0.070708 0.402224 0.430646 -0.378042 -0.819529 117 86 64 255 3
-0.052655 0.070773 0.402596 0.441302 -0.382371 -0.811816 115 86 63 255 3
-0.052175 0.070890 0.403259 0.454737 -0.386191 -0.802540 111 83 63 255 3
-0.051690 0.071003 0.403901 0.474052 -0.388561 -0.790123 110 84 62 255 3
-0.051250 0.071181 0.404915 0.490461 -0.387281 -0.780680 96 81 61 255 3
0.021667 0.079658 0.453136 0.925647 -0.378284 0.008859 71 64 49 255 3
0.020281 0.072433 0.412038 -0.497391 -0.357278 -0.790541 72 60 45 255 3
0.020788 0.072182 0.410609 -0.503740 -0.366452 -0.782278 75 58 42 255 3
0.021335 0.072076 0.410008 -0.507029 -0.369725 -0.778604 78 57 40 255 3
0.021879 0.071971 0.409408 -0.510679 -0.371193 -0.775514 79 57 40 255 3
0.022425 0.071876 0.408870 -0.510659 -0.370975 -0.775632 86 62 44 255 3
0.022831 0.071348 0.405868 -0.491871 -0.368779 -0.788711 101 74 54 255 3
0.023288 0.070999 0.403880 -0.461183 -0.371990 -0.805564 115 84 64 255 3
0.023804 0.070846 0.403010 -0.436188 -0.370414 -0.820081 116 85 63 255 3
0.024338 0.070751 0.402472 -0.410077 -0.368148 -0.834448 109 80 59 255 3
0.024880 0.070682 0.402079 -0.384137 -0.369278 -0.846211 110 80 60 255 3
0.025418 0.070606 0.401644 -0.352973 -0.365959 -0.861095 109 79 59 255 3
0.025953 0.070526 0.401188 -0.325983 -0.367620 -0.870971 110 81 61 255 3
0.026500 0.070478 0.400919 -0.301768 -0.367616 -0.879656 110 80 61 255 3
0.027047 0.070435 0.400671 -0.276854 -0.369692 -0.886950 110 80 60 255 3
0.027593 0.070391 0.400422 -0.262204 -0.373760 -0.889692 111 80 59 255 3
0.028139 0.070347 0.400174 -0.243304 -0.370837 -0.896261 111 79 58 255 3
0.028684 0.070304 0.399925 -0.238279 -0.371606 -0.897291 110 79 57 255 3
0.029228 0.070260 0.399677 -0.230227 -0.369478 -0.900268 108 77 55 255 3
0.029776 0.070227 0.399491 -0.226717 -0.371189 -0.900455 106 76 54 255 3
0.030330 0.070209 0.399387 -0.220068 -0.370789 -0.902267 106 75 54 255 3
0.030894 0.070213 0.399408 -0.218759 -0.370453 -0.902723 105 75 54 255 3
0.031457 0.070216 0.399429 -0.217126 -0.370025 -0.903293 104 74 55 255 3
0.032024 0.070227 0.399491 -0.216371 -0.372400 -0.902498 103 73 55 255 3
0.032596 0.070249 0.399615 -0.213875 -0.373559 -0.902614 102 73 55 255 3
0.033170 0.070275 0.399760 -0.213308 -0.371702 -0.903514 101 72 54 255 3
0.033751 0.070315 0.399988 -0.215452 -0.371263 -0.903185 97 68 51 255 3
0.034340 0.070369 0.400298 -0.217751 -0.374836 -0.901156 94 64 48 255 3
0.034930 0.070424 0.400609 -0.217165 -0.377440 -0.900210 92 61 46 255 3
0.035539 0.070515 0.401126 -0.221110 -0.377066 -0.899406 92 59 45 255 3
0.036148 0.070602 0.401623 -0.223307 -0.380582 -0.897380 87 56 42 255 3
0.036783 0.070737 0.402389 -0.228475 -0.382872 -0.895102 86 55 42 255 3
0.037449 0.070926 0.403466 -0.239679 -0.383850 -0.891747 91 62 47 255 3
-0.074468 0.080196 0.452577 0.571855 0.544628 -0.613484 75 66 51 255 3
-0.065593 0.071248 0.402079 0.219984 -0.331597 -0.917415 75 66 51 255 3
-0.064921 0.071130 0.401416 0.210225 -0.324332 -0.922287 86 60 42 255 3
-0.064273 0.071039 0.400899 0.208531 -0.323235 -0.923057 89 61 43 255 3
-0.063657 0.070980 0.400567 0.207795 -0.321918 -0.923683 90 62 44 255 3
-0.063044 0.070925 0.400257 0.203091 -0.317577 -0.926228 92 62 44 255 3
-0.062459 0.070899 0.400112 0.204209 -0.316369 -0.926396 94 65 46 255 3
-0.061877 0.070877 0.399988 0.205003 -0.314492 -0.926859 97 67 48 255 3
-0.061292 0.070851 0.399843 0.201961 -0.312902 -0.928065 100 70 50 255 3
-0.060727 0.070848 0.399822 0.211719 -0.315041 -0.925162 103 74 52 255 3
-0.060158 0.070840 0.399781 0.217448 -0.315118 -0.923806 104 76 54 255 3
-0.059593 0.070837 0.399760 0.228503 -0.314988 -0.921178 106 79 56 255 3
-0.059031 0.070837 0.399760 0.234247 -0.314234 -0.919992 109 81 58 255 3
-0.058484 0.070855 0.399863 0.254631 -0.318315 -0.913148 111 82 59 255 3
-0.057933 0.070870 0.399946 0.274667 -0.322379 -0.905886 114 84 61 255 3
-0.057386 0.070888 0.400050 0.287270 -0.327108 -0.900264 115 85 61 255 3
-0.056835 0.070903 0.400133 0.300154 -0.329870 -0.895038 114 84 61 255 3
-0.056301 0.070940 0.400340 0.326266 -0.339235 -0.882310 115 85 63 255 3
-0.055770 0.070980 0.400567 0.333866 -0.344979 -0.877224 117 87 64 255 3
-0.055235 0.071017 0.400774 0.352997 -0.354286 -0.865953 117 87 65 255 3
-0.054700 0.071053 0.400981 0.371975 -0.362570 -0.854504 118 87 65 255 3
-0.054167 0.071094 0.401209 0.384617 -0.369788 -0.845770 120 87 65 255 3
-0.053649 0.071156 0.401561 0.396694 -0.377592 -0.836695 120 87 65 255 3
-0.053131 0.071218 0.401913 0.410655 -0.382784 -0.827550 117 86 63 255 3
-0.052615 0.071284 0.402286 0.425550 -0.388930 -0.817093 115 86 63 255 3
-0.052108 0.071365 0.402741 0.441761 -0.393532 -0.806214 113 85 64 255 3
-0.051626 0.071483 0.403404 0.453530 -0.396425 -0.798222 109 82 61 255 3
-0.051135 0.071589 0.404004 0.465975 -0.401244 -0.788587 106 83 62 255 3
-0.050725 0.071813 0.405267 0.484595 -0.399986 -0.777932 92 82 64 255 3
0.024184 0.080189 0.452535 -0.863329 0.090296 -0.496498 83 68 51 255 3
0.022240 0.071853 0.405495 -0.488620 -0.373666 -0.788432 103 76 56 255 3
0.022717 0.071560 0.403839 -0.463637 -0.374033 -0.803206 111 81 61 255 3
0.023241 0.071424 0.403073 -0.443895 -0.370663 -0.815822 113 81 61 255 3
0.023772 0.071317 0.402472 -0.420415 -0.367628 -0.829518 112 81 59 255 3
0.024315 0.071248 0.402079 -0.396691 -0.363770 -0.842797 109 79 59 255 3
0.024856 0.071178 0.401685 -0.369759 -0.362949 -0.855305 110 80 59 255 3
0.025396 0.071108 0.401292 -0.347428 -0.361780 -0.865106 111 80 60 255 3
0.025940 0.071053 0.400981 -0.320783 -0.361637 -0.875395 110 80 60 255 3
0.026488 0.071009 0.400733 -0.295371 -0.360323 -0.884830 110 80 61 255 3
0.027034 0.070965 0.400484 -0.276668 -0.362116 -0.890127 110 80 60 255 3
0.027580 0.070921 0.400236 -0.253656 -0.361520 -0.897197 110 80 59 255 3
0.028126 0.070877 0.399988 -0.238338 -0.361747 -0.901296 111 80 59 255 3
0.028671 0.070833 0.399739 -0.228812 -0.362448 -0.903480 110 78 57 255 3
0.029221 0.070804 0.399573 -0.224299 -0.364890 -0.903629 107 76 55 255 3
0.029773 0.070782 0.399449 -0.222447 -0.363339 -0.904711 104 74 53 255 3
0.030332 0.070774 0.399408 -0.217958 -0.361694 -0.906461 103 74 53 255 3
0.030895 0.070778 0.399429 -0.212918 -0.364115 -0.906690 103 74 53 255 3
0.031459 0.070782 0.399449 -0.208287 -0.361877 -0.908659 102 74 54 255 3
0.032027 0.070796 0.399532 -0.209001 -0.362628 -0.908196 101 72 54 255 3
0.032599 0.070818 0.399656 -0.207828 -0.364628 -0.907664 101 72 54 255 3
0.033173 0.070844 0.399801 -0.208758 -0.367185 -0.906419 98 69 52 255 3
0.033755 0.070884 0.400029 -0.209488 -0.367841 -0.905984 95 66 50 255 3
0.034338 0.070929 0.400277 -0.212934 -0.367933 -0.905143 92 63 46 255 3
0.034925 0.070976 0.400547 -0.213875 -0.368978 -0.904496 91 61 45 255 3
0.035528 0.071057 0.401002 -0.215296 -0.373381 -0.902349 90 58 43 255 3
0.036137 0.071145 0.401499 -0.218677 -0.373410 -0.901524 87 56 42 255 3
0.036779 0.071295 0.402348 -0.221761 -0.376847 -0.899338 86 56 42 255 3
0.037472 0.071538 0.403714 -0.237788 -0.379738 -0.894011 93 65 50 255 3
-0.065718 0.071950 0.402845 0.224770 -0.329236 -0.917105 82 63 46 255 3
-0.064957 0.071736 0.401644 0.205135 -0.320318 -0.924833 85 58 40 255 3
-0.064293 0.071625 0.401023 0.201258 -0.314550 -0.927660 86 58 41 255 3
-0.063680 0.071569 0.400712 0.200227 -0.313362 -0.928285 89 61 43 255 3
-0.063070 0.071517 0.400422 0.199168 -0.312488 -0.928808 91 62 44 255 3
-0.062468 0.071473 0.400174 0.197294 -0.308239 -0.930626 93 64 45 255 3
-0.061886 0.071451 0.400050 0.193727 -0.306132 -0.932069 95 66 46 255 3
-0.061302 0.071425 0.399905 0.197409 -0.306920 -0.931037 98 69 49 255 3
-0.060724 0.071406 0.399801 0.203090 -0.306205 -0.930050 102 73 52 255 3
-0.060158 0.071403 0.399781 0.214726 -0.307998 -0.926839 104 75 54 255 3
-0.059590 0.071395 0.399739 0.223284 -0.310047 -0.924129 105 77 55 255 3
-0.059021 0.071388 0.399698 0.232312 -0.310313 -0.921812 108 79 57 255 3
-0.058468 0.071399 0.399760 0.245841 -0.312406 -0.917586 111 81 58 255 3
-0.057921 0.071417 0.399863 0.268719 -0.318809 -0.908928 113 83 59 255 3
-0.057371 0.071432 0.399946 0.280006 -0.323598 -0.903815 114 84 61 255 3
-0.056823 0.071451 0.400050 0.293188 -0.329927 -0.897323 113 84 61 255 3
-0.056275 0.071469 0.400153 0.314063 -0.337301 -0.887464 115 85 63 255 3
-0.055741 0.071506 0.400360 0.325274 -0.345468 -0.880255 116 86 63 255 3
-0.055209 0.071547 0.400588 0.345998 -0.354670 -0.868616 117 87 65 255 3
-0.054674 0.071584 0.400795 0.358769 -0.361982 -0.860380 118 87 64 255 3
-0.054139 0.071621 0.401002 0.371074 -0.371356 -0.851116 118 86 63 255 3
-0.053611 0.071669 0.401271 0.385151 -0.379564 -0.841183 120 88 65 255 3
-0.053093 0.071732 0.401623 0.400236 -0.386632 -0.830859 117 87 64 255 3
-0.052574 0.071795 0.401975 0.414268 -0.394135 -0.820390 116 86 64 255 3
-0.052057 0.071861 0.402348 0.423451 -0.399917 -0.812869 114 86 64 255 3
-0.051563 0.071961 0.402907 0.434680 -0.405166 -0.804297 111 84 63 255 3
-0.051072 0.072068 0.403507 0.453014 -0.409856 -0.791705 106 81 61 255 3
-0.050590 0.072190 0.404191 0.459441 -0.410060 -0.787886 103 83 63 255 3
0.021650 0.072357 0.405122 -0.479750 -0.381911 -0.789926 99 84 64 255 3
0.022149 0.072127 0.403839 -0.461568 -0.378598 -0.802258 114 84 62 255 3
0.022678 0.072002 0.403135 -0.444931 -0.375267 -0.813149 113 79 58 255 3
0.023206 0.071883 0.402472 -0.427099 -0.372691 -0.823825 110 79 59 255 3
0.023749 0.071813 0.402079 -0.410954 -0.367909 -0.834122 109 78 57 255 3
0.024291 0.071743 0.401685 -0.389714 -0.364620 -0.845680 111 81 60 255 3
0.024833 0.071676 0.401313 -0.361831 -0.361425 -0.859331 111 80 60 255 3
0.025377 0.071621 0.401002 -0.338840 -0.357564 -0.870250 111 81 60 255 3
0.025927 0.071580 0.400774 -0.315077 -0.356564 -0.879539 111 81 60 255 3
0.026475 0.071540 0.400547 -0.293354 -0.353736 -0.888152 111 81 60 255 3
0.027022 0.071495 0.400298 -0.272049 -0.354722 -0.894518 110 80 59 255 3
0.027568 0.071451 0.400050 -0.252256 -0.353210 -0.900894 110 80 58 255 3
0.028113 0.071406 0.399801 -0.235710 -0.352424 -0.905670 110 79 57 255 3
0.028665 0.071381 0.399656 -0.224295 -0.355242 -0.907466 109 78 56 255 3
0.029218 0.071358 0.399532 -0.220750 -0.354971 -0.908441 107 77 55 255 3
0.029769 0.071332 0.399387 -0.213628 -0.354804 -0.910207 105 75 54 255 3
0.030332 0.071336 0.399408 -0.205729 -0.353482 -0.912538 103 74 53 255 3
0.030895 0.071340 0.399429 -0.204204 -0.353923 -0.912710 103 74 54 255 3
0.031459 0.071344 0.399449 -0.204818 -0.355289 -0.912041 101 73 53 255 3
0.032030 0.071366 0.399573 -0.203246 -0.356032 -0.912103 100 72 53 255 3
0.032602 0.071388 0.399698 -0.203115 -0.358748 -0.911068 99 70 52 255 3
0.033176 0.071414 0.399843 -0.203573 -0.359485 -0.910675 97 68 51 255 3
0.033762 0.071462 0.400112 -0.205393 -0.361963 -0.909284 94 64 47 255 3
0.034346 0.071506 0.400360 -0.208980 -0.363533 -0.907839 93 62 46 255 3
0.034939 0.071569 0.400712 -0.210548 -0.363561 -0.907465 91 61 45 255 3
0.035541 0.071647 0.401147 -0.211683 -0.364157 -0.906962 90 58 43 255 3
0.036152 0.071739 0.401665 -0.215518 -0.369700 -0.903811 86 55 41 255 3
0.036781 0.071865 0.402369 -0.217519 -0.370848 -0.902860 89 58 44 255 3
0.037497 0.072153 0.403984 -0.234120 -0.377020 -0.896127 87 69 54 255 3
-0.065068 0.072423 0.402327 0.206738 -0.317792 -0.925347 86 61 42 255 3
-0.064366 0.072271 0.401478 0.197865 -0.310498 -0.929753 85 57 39 255 3
-0.063712 0.072170 0.400919 0.193815 -0.307553 -0.931583 87 59 42 255 3
-0.063100 0.072114 0.400609 0.194617 -0.305783 -0.931998 89 60 42 255 3
-0.062488 0.072058 0.400298 0.187508 -0.301692 -0.934785 90 62 43 255 3
-0.061896 0.072025 0.400112 0.188769 -0.300911 -0.934783 93 65 46 255 3
-0.061311 0.071998 0.399967 0.190920 -0.299254 -0.934878 97 68 48 255 3
-0.060727 0.071972 0.399822 0.199990 -0.299495 -0.932902 101 72 51 255 3
-0.060155 0.071961 0.399760 0.204491 -0.300362 -0.931647 102 73 52 255 3
-0.059587 0.071954 0.399718 0.216237 -0.302424 -0.928322 105 76 55 255 3
-0.059018 0.071946 0.399677 0.227165 -0.305633 -0.924654 108 79 57 255 3
-0.058456 0.071946 0.399677 0.242419 -0.309981 -0.919318 110 81 58 255 3
-0.057906 0.071961 0.399760 0.262762 -0.315617 -0.911779 112 82 59 255 3
-0.057356 0.071976 0.399843 0.275552 -0.322190 -0.905685 113 83 60 255 3
-0.056805 0.071991 0.399925 0.282697 -0.328406 -0.901239 114 84 62 255 3
-0.056255 0.072006 0.400008 0.304547 -0.338455 -0.890337 114 85 62 255 3
-0.055715 0.072036 0.400174 0.317463 -0.347724 -0.882216 115 85 62 255 3
-0.055181 0.072073 0.400381 0.330622 -0.355341 -0.874312 117 86 64 255 3
-0.054646 0.072110 0.400588 0.345946 -0.363784 -0.864860 117 86 64 255 3
-0.054111 0.072148 0.400795 0.360277 -0.374106 -0.854544 118 87 64 255 3
-0.053575 0.072185 0.401002 0.370591 -0.382325 -0.846457 119 87 63 255 3
-0.053057 0.072248 0.401354 0.386505 -0.391001 -0.835304 118 87 64 255 3
-0.052536 0.072308 0.401685 0.394512 -0.398878 -0.827802 117 87 65 255 3
-0.052017 0.072371 0.402037 0.404951 -0.405472 -0.819516 114 86 63 255 3
-0.051496 0.072435 0.402389 0.417575 -0.413190 -0.809262 113 85 63 255 3
-0.051009 0.072546 0.403010 0.431063 -0.417962 -0.799682 110 84 63 255 3
-0.050518 0.072654 0.403611 0.444511 -0.418414 -0.792048 108 82 61 255 3
-0.050078 0.072841 0.404646 0.461541 -0.419411 -0.781713 97 82 64 255 3
0.021098 0.072986 0.405454 -0.482309 -0.388510 -0.785136 88 81 64 255 3
0.021585 0.072707 0.403901 -0.461962 -0.390909 -0.796104 114 89 67 255 3
0.022114 0.072580 0.403197 -0.443332 -0.385167 -0.809385 113 82 59 255 3
0.022642 0.072453 0.402493 -0.420659 -0.381330 -0.823185 111 80 58 255 3
0.023185 0.072382 0.402099 -0.407997 -0.376549 -0.831715 108 79 59 255 3
0.023728 0.072315 0.401727 -0.389038 -0.369675 -0.843795 110 79 59 255 3
0.024271 0.072248 0.401354 -0.372934 -0.363540 -0.853674 112 81 61 255 3
0.024814 0.072185 0.401002 -0.353364 -0.359984 -0.863449 112 82 61 255 3
0.025363 0.072144 0.400774 -0.329724 -0.355636 -0.874531 112 81 60 255 3
0.025912 0.072103 0.400547 -0.310577 -0.352666 -0.882705 112 81 61 255 3
0.026460 0.072062 0.400319 -0.291624 -0.350751 -0.889904 111 81 59 255 3
0.027008 0.072021 0.400091 -0.266697 -0.346984 -0.899152 110 80 58 255 3
0.027555 0.071980 0.399863 -0.249593 -0.343989 -0.905193 109 78 57 255 3
0.028108 0.071957 0.399739 -0.229860 -0.343475 -0.910598 109 78 57 255 3
0.028662 0.071935 0.399615 -0.220380 -0.345070 -0.912337 108 78 56 255 3
0.029213 0.071909 0.399470 -0.213056 -0.346258 -0.913626 106 76 55 255 3
0.029770 0.071898 0.399408 -0.204620 -0.345920 -0.915680 104 75 53 255 3
0.030333 0.071902 0.399429 -0.199058 -0.344745 -0.917348 102 74 53 255 3
0.030895 0.071902 0.399429 -0.199874 -0.347536 -0.916116 102 74 54 255 3
0.031460 0.071909 0.399470 -0.199924 -0.349781 -0.915251 100 72 53 255 3
0.032034 0.071935 0.399615 -0.198123 -0.350776 -0.915261 99 70 52 255 3
0.032606 0.071957 0.399739 -0.198610 -0.350181 -0.915384 97 69 51 255 3
0.033183 0.071991 0.399925 -0.198706 -0.353122 -0.914232 95 66 49 255 3
0.033767 0.072036 0.400174 -0.202673 -0.354874 -0.912682 93 64 47 255 3
0.034354 0.072088 0.400464 -0.203817 -0.355634 -0.912131 93 63 46 255 3
0.034952 0.072159 0.400857 -0.205051 -0.359582 -0.910305 93 62 45 255 3
0.035556 0.072241 0.401313 -0.206495 -0.359308 -0.910087 91 60 45 255 3
0.036180 0.072360 0.401975 -0.211604 -0.361264 -0.908137 89 58 44 255 3
0.036832 0.072531 0.402928 -0.219203 -0.367151 -0.903964 93 65 50 255 3
-0.072897 0.081771 0.450734 0.580901 0.524514 -0.622447 81 71 53 255 3
-0.064456 0.072937 0.402037 0.191124 -0.305950 -0.932666 82 56 40 255 3
-0.063778 0.072809 0.401333 0.190393 -0.302556 -0.933922 84 57 40 255 3
-0.063132 0.072715 0.400816 0.188263 -0.299978 -0.935185 86 59 41 255 3
-0.062520 0.072659 0.400505 0.182750 -0.296422 -0.937410 88 61 43 255 3
-0.061906 0.072599 0.400174 0.182989 -0.295659 -0.937604 91 63 45 255 3
-0.061324 0.072576 0.400050 0.188117 -0.295021 -0.936790 94 66 47 255 3
-0.060736 0.072546 0.399884 0.191606 -0.294400 -0.936278 97 69 49 255 3
-0.060152 0.072520 0.399739 0.202177 -0.297224 -0.933157 102 72 52 255 3
-0.059587 0.072516 0.399718 0.208125 -0.297491 -0.931763 104 75 54 255 3
-0.059018 0.072508 0.399677 0.223845 -0.302534 -0.926481 107 77 56 255 3
-0.058447 0.072497 0.399615 0.237835 -0.307219 -0.921440 109 79 56 255 3
-0.057888 0.072501 0.399636 0.249960 -0.312591 -0.916410 112 81 58 255 3
-0.057338 0.072516 0.399718 0.266257 -0.320472 -0.909068 112 82 59 255 3
-0.056788 0.072531 0.399801 0.278996 -0.326620 -0.903039 112 82 60 255 3
-0.056237 0.072546 0.399884 0.290038 -0.335669 -0.896216 113 83 61 255 3
-0.055689 0.072565 0.399988 0.305026 -0.346261 -0.887165 116 85 63 255 3
-0.055155 0.072602 0.400195 0.317030 -0.354889 -0.879515 116 85 63 255 3
-0.054621 0.072640 0.400402 0.335390 -0.365294 -0.868374 117 86 63 255 3
-0.054086 0.072677 0.400609 0.338549 -0.372847 -0.863927 117 86 63 255 3
-0.053550 0.072715 0.400816 0.357346 -0.384978 -0.850938 119 87 64 255 3
-0.053019 0.072760 0.401064 0.372171 -0.394383 -0.840209 118 87 64 255 3
-0.052501 0.072824 0.401416 0.379308 -0.403232 -0.832784 118 87 64 255 3
-0.051979 0.072884 0.401747 0.393362 -0.410667 -0.822569 117 87 64 255 3
-0.051459 0.072948 0.402099 0.404932 -0.416072 -0.814196 115 87 64 255 3
-0.050949 0.073027 0.402534 0.419207 -0.422786 -0.803441 113 85 63 255 3
-0.050455 0.073132 0.403114 0.429573 -0.427508 -0.795427 108 82 60 255 3
-0.049963 0.073241 0.403714 0.438296 -0.431092 -0.788706 108 83 62 255 3
0.021020 0.073286 0.403963 -0.453917 -0.400383 -0.796023 109 85 66 255 3
0.021550 0.073158 0.403259 -0.438311 -0.396144 -0.806817 112 83 62 255 3
0.022080 0.073034 0.402576 -0.423214 -0.392009 -0.816835 112 81 60 255 3
0.022622 0.072955 0.402141 -0.407992 -0.385861 -0.827438 110 80 59 255 3
0.023166 0.072888 0.401768 -0.395509 -0.379658 -0.836320 109 81 60 255 3
0.023709 0.072820 0.401395 -0.377654 -0.373225 -0.847397 113 82 62 255 3
0.024251 0.072753 0.401023 -0.356703 -0.365140 -0.859905 112 82 61 255 3
0.024799 0.072707 0.400774 -0.345851 -0.358835 -0.866963 112 83 61 255 3
0.025349 0.072666 0.400547 -0.323271 -0.354244 -0.877501 113 83 61 255 3
