ply
format ascii 1.0
comment Created by labeled_geometry.py
element vertex 635
property float x
property float y
property float z
property float nx
property float ny
property float nz
property uchar red
property uchar green
property uchar blue
property uchar alpha
property uchar label
end_header
-0.017770 -0.005686 0.505431 0.010304 0.110343 -0.993840 114 86 65 255 1
-0.017046 -0.005682 0.505026 0.035162 0.112650 -0.993012 118 90 68 255 1
-0.016322 -0.005677 0.504621 0.061378 0.119351 -0.990953 124 97 74 255 1
-0.015603 -0.005674 0.504308 0.081845 0.122112 -0.989136 132 105 81 255 1
-0.014887 -0.005671 0.504087 0.110582 0.135656 -0.984565 135 110 85 255 1
-0.014175 -0.005670 0.503958 0.133163 0.133741 -0.982029 134 110 85 255 1
-0.013463 -0.005669 0.503847 0.154587 0.133273 -0.978949 135 110 85 255 1
-0.012753 -0.005668 0.503792 0.177520 0.139249 -0.974216 133 108 83 255 1
-0.012046 -0.005669 0.503847 0.196900 0.132275 -0.971460 132 107 82 255 1
-0.011339 -0.005669 0.503921 0.209240 0.119016 -0.970595 132 107 82 255 1
-0.010633 -0.005671 0.504050 0.219886 0.095119 -0.970877 131 106 81 255 1
-0.009927 -0.005673 0.504216 0.223137 0.075620 -0.971849 129 106 81 255 1
-0.009222 -0.005675 0.504437 0.239014 0.060205 -0.969148 126 105 81 255 1
-0.008518 -0.005679 0.504768 0.258370 0.057796 -0.964316 124 104 79 255 1
-0.007815 -0.005683 0.505154 0.268585 0.038274 -0.962495 122 102 77 255 1
-0.007110 -0.005688 0.505578 0.274456 0.019676 -0.961398 120 99 75 255 1
-0.006406 -0.005694 0.506112 0.279301 -0.012162 -0.960127 118 95 71 255 1
-0.005701 -0.005701 0.506719 0.289277 -0.027762 -0.956843 116 92 69 255 1
-0.004995 -0.005708 0.507363 0.295026 -0.047988 -0.954283 111 87 64 255 1
-0.004287 -0.005716 0.508100 0.301319 -0.058571 -0.951723 107 82 60 255 1
-0.003579 -0.005726 0.508947 0.302176 -0.078113 -0.950046 101 76 55 255 1
-0.002868 -0.005737 0.509904 0.302712 -0.091170 -0.948711 93 70 49 255 1
-0.002156 -0.005750 0.511100 0.306538 -0.102906 -0.946279 87 65 45 255 1
-0.001441 -0.005766 0.512481 0.303764 -0.116166 -0.945639 84 61 42 255 1
-0.000724 -0.005789 0.514506 0.304354 -0.121871 -0.944731 71 61 43 255 1
-0.158330 -0.005487 0.557343 -0.693928 -0.648056 -0.313828 104 85 66 255 3
-0.148684 -0.005178 0.525993 0.155184 0.035128 -0.987261 118 87 64 255 3
-0.147815 -0.005174 0.525533 0.153629 0.033840 -0.987549 115 84 60 255 3
-0.147004 -0.005171 0.525275 0.151237 0.032705 -0.987956 115 84 60 255 3
-0.146204 -0.005169 0.525054 0.139886 0.026026 -0.989826 124 90 64 255 3
-0.145425 -0.005167 0.524907 0.130678 0.021620 -0.991189 126 93 67 255 3
-0.144656 -0.005166 0.524797 0.114694 0.011922 -0.993329 125 93 66 255 3
-0.143872 -0.005165 0.524631 0.094757 -0.000563 -0.995500 122 92 65 255 3
-0.143115 -0.005164 0.524557 0.071427 -0.014203 -0.997345 120 90 64 255 3
-0.142357 -0.005163 0.524484 0.043711 -0.029635 -0.998605 120 90 64 255 3
-0.141604 -0.005163 0.524428 0.016340 -0.045072 -0.998850 110 81 57 255 3
-0.140892 -0.005164 0.524520 -0.006066 -0.057415 -0.998332 108 79 55 255 3
-0.140169 -0.005164 0.524576 -0.031741 -0.071268 -0.996952 105 76 53 255 3
-0.139499 -0.005167 0.524833 -0.052806 -0.081374 -0.995284 97 68 48 255 3
-0.138849 -0.005170 0.525165 -0.070609 -0.090083 -0.993428 78 59 43 255 3
-0.138265 -0.005176 0.525754 -0.085560 -0.095989 -0.991698 73 55 43 255 3
-0.137728 -0.005183 0.526527 -0.096734 -0.100459 -0.990228 73 57 45 255 3
-0.123838 -0.005487 0.557325 -0.503322 -0.501247 -0.703860 80 71 54 255 3
-0.114787 -0.005118 0.519881 -0.228388 -0.442406 -0.867246 96 71 51 255 3
-0.113798 -0.005106 0.518703 -0.203926 -0.474522 -0.856296 100 70 49 255 3
-0.112855 -0.005097 0.517728 -0.175812 -0.496641 -0.849963 102 70 48 255 3
-0.112044 -0.005093 0.517341 -0.188270 -0.499952 -0.845341 102 76 54 255 3
-0.110734 -0.005066 0.514635 -0.211800 -0.516487 -0.829688 115 105 89 255 3
-0.109864 -0.005060 0.513954 -0.220226 -0.523145 -0.823298 115 112 101 255 3
-0.108962 -0.005051 0.513107 -0.234064 -0.525048 -0.818253 115 114 103 255 3
-0.107743 -0.005028 0.510751 -0.255762 -0.531975 -0.807210 112 112 101 255 4
-0.107036 -0.005029 0.510806 -0.256973 -0.535794 -0.804294 111 111 100 255 4
-0.106353 -0.005030 0.510972 -0.255516 -0.541760 -0.800755 113 113 101 255 4
-0.105737 -0.005035 0.511469 -0.252230 -0.549437 -0.796554 114 114 102 255 4
-0.105032 -0.005036 0.511542 -0.251479 -0.554036 -0.793601 114 114 102 255 4
-0.104137 -0.005027 0.510677 -0.252696 -0.560118 -0.788931 115 116 104 255 4
-0.103336 -0.005023 0.510272 -0.253513 -0.565574 -0.784766 114 114 102 255 4
-0.102537 -0.005019 0.509867 -0.249867 -0.569922 -0.782787 115 115 103 255 4
-0.101758 -0.005016 0.509554 -0.247375 -0.574025 -0.780577 127 127 115 255 4
-0.101023 -0.005015 0.509462 -0.236598 -0.580347 -0.779242 129 128 115 255 4
-0.100288 -0.005014 0.509370 -0.227837 -0.583187 -0.779733 123 109 91 255 4
-0.099612 -0.005016 0.509573 -0.218498 -0.588521 -0.778397 120 97 76 255 4
-0.098824 -0.005013 0.509204 -0.208080 -0.590165 -0.780005 126 98 77 255 4
-0.098037 -0.005009 0.508836 -0.194446 -0.588014 -0.785131 126 98 76 255 4
-0.097250 -0.005006 0.508468 -0.178125 -0.583860 -0.792073 125 97 74 255 4
-0.096452 -0.005001 0.508026 -0.160971 -0.579328 -0.799042 127 98 75 255 4
-0.095657 -0.004997 0.507603 -0.141519 -0.569656 -0.809607 127 98 75 255 4
-0.094912 -0.004995 0.507437 -0.127652 -0.565429 -0.814859 127 98 75 255 4
-0.094175 -0.004994 0.507308 -0.115952 -0.560738 -0.819834 126 99 76 255 4
-0.093441 -0.004993 0.507198 -0.103806 -0.553151 -0.826588 126 100 76 255 4
-0.092708 -0.004992 0.507087 -0.091886 -0.547639 -0.831654 127 100 76 255 4
-0.091974 -0.004991 0.506977 -0.082334 -0.545072 -0.834336 128 100 76 255 4
-0.091238 -0.004990 0.506848 -0.069581 -0.538462 -0.839772 129 100 76 255 4
-0.090509 -0.004989 0.506756 -0.059222 -0.534915 -0.842828 130 102 77 255 4
-0.089800 -0.004989 0.506774 -0.050000 -0.531311 -0.845700 131 102 77 255 4
-0.089087 -0.004989 0.506774 -0.042416 -0.527350 -0.848588 132 102 77 255 4
-0.088377 -0.004989 0.506793 -0.035547 -0.523504 -0.851281 133 103 77 255 4
-0.087665 -0.004989 0.506793 -0.029367 -0.520283 -0.853489 134 104 79 255 4
-0.086958 -0.004989 0.506830 -0.025047 -0.515507 -0.856519 135 106 81 255 4
-0.086255 -0.004990 0.506885 -0.020556 -0.511551 -0.859007 136 107 82 255 4
-0.085539 -0.004990 0.506866 -0.011684 -0.504251 -0.863478 136 108 82 255 4
-0.084814 -0.004989 0.506793 -0.005200 -0.497821 -0.867264 135 108 82 255 4
-0.084092 -0.004989 0.506738 -0.000881 -0.490820 -0.871261 135 108 82 255 4
-0.083388 -0.004989 0.506793 -0.000243 -0.485760 -0.874092 133 107 81 255 4
-0.082736 -0.004993 0.507161 -0.001809 -0.482925 -0.875660 132 105 80 255 4
-0.082070 -0.004996 0.507456 -0.005059 -0.479494 -0.877531 129 102 77 255 4
-0.081333 -0.004994 0.507308 -0.010020 -0.474738 -0.880070 127 101 77 255 4
-0.080561 -0.004990 0.506940 -0.016011 -0.464249 -0.885560 130 106 81 255 4
-0.079868 -0.004992 0.507069 -0.026454 -0.462471 -0.886240 132 109 83 255 4
-0.079164 -0.004992 0.507124 -0.035096 -0.459344 -0.887565 133 109 84 255 4
-0.078456 -0.004993 0.507161 -0.043990 -0.453407 -0.890217 134 110 85 255 4
-0.077743 -0.004993 0.507161 -0.055242 -0.449242 -0.891700 134 110 84 255 4
-0.077030 -0.004993 0.507161 -0.066851 -0.445857 -0.892604 135 110 84 255 4
-0.076319 -0.004993 0.507179 -0.079122 -0.443308 -0.892871 136 111 85 255 4
-0.075609 -0.004993 0.507198 -0.091099 -0.442172 -0.892292 134 111 85 255 4
-0.074898 -0.004993 0.507216 -0.102443 -0.439159 -0.892550 134 111 85 255 4
-0.074185 -0.004993 0.507216 -0.112375 -0.438395 -0.891729 135 112 85 255 4
-0.073472 -0.004993 0.507216 -0.122187 -0.438508 -0.890382 135 111 85 255 4
-0.072756 -0.004993 0.507198 -0.130659 -0.435001 -0.890900 134 111 84 255 4
-0.072042 -0.004993 0.507198 -0.139124 -0.433574 -0.890313 134 110 84 255 4
-0.071308 -0.004992 0.507051 -0.144875 -0.430334 -0.890968 135 110 85 255 4
-0.070572 -0.004990 0.506885 -0.149661 -0.427098 -0.891734 135 110 84 255 4
-0.069834 -0.004988 0.506701 -0.151899 -0.425869 -0.891943 136 111 85 255 4
-0.069094 -0.004986 0.506498 -0.152633 -0.422231 -0.893546 135 110 84 255 4
-0.068329 -0.004982 0.506112 -0.151814 -0.416308 -0.896460 134 110 84 255 4
-0.067563 -0.004978 0.505707 -0.146626 -0.412778 -0.898952 134 111 84 255 4
-0.066801 -0.004975 0.505320 -0.138812 -0.405133 -0.903658 135 112 85 255 4
-0.066064 -0.004973 0.505118 -0.129762 -0.401825 -0.906476 136 112 84 255 4
-0.065337 -0.004971 0.504989 -0.119815 -0.401500 -0.907988 136 111 83 255 4
-0.064608 -0.004970 0.504842 -0.107278 -0.399083 -0.910617 137 111 84 255 4
-0.063879 -0.004968 0.504694 -0.092666 -0.396489 -0.913351 137 113 85 255 4
-0.063153 -0.004967 0.504565 -0.078134 -0.395121 -0.915300 137 112 84 255 4
-0.062428 -0.004966 0.504437 -0.060036 -0.390739 -0.918541 138 112 85 255 4
-0.061705 -0.004965 0.504326 -0.040538 -0.390036 -0.919907 137 111 84 255 4
-0.060982 -0.004964 0.504216 -0.019519 -0.388944 -0.921055 136 111 85 255 4
-0.060260 -0.004963 0.504105 0.001388 -0.385246 -0.922813 134 110 84 255 4
-0.059538 -0.004962 0.503995 0.024395 -0.383500 -0.923219 135 111 85 255 4
-0.058821 -0.004961 0.503921 0.047146 -0.382346 -0.922816 135 112 86 255 4
-0.058114 -0.004961 0.503939 0.071392 -0.378362 -0.922900 137 114 87 255 4
-0.057407 -0.004961 0.503958 0.094757 -0.377432 -0.921177 140 116 89 255 4
-0.056722 -0.004963 0.504160 0.115947 -0.381137 -0.917219 140 116 90 255 4
-0.056031 -0.004965 0.504326 0.138869 -0.380770 -0.914183 138 114 88 255 4
-0.055336 -0.004966 0.504455 0.161104 -0.382652 -0.909738 137 113 87 255 4
-0.054644 -0.004968 0.504621 0.179360 -0.382458 -0.906397 136 112 85 255 4
-0.053958 -0.004970 0.504842 0.199817 -0.384301 -0.901325 134 110 84 255 4
-0.053270 -0.004972 0.505044 0.223162 -0.388592 -0.893977 135 110 83 255 4
-0.052588 -0.004975 0.505320 0.245843 -0.392816 -0.886147 135 109 82 255 4
-0.051906 -0.004977 0.505596 0.265553 -0.395573 -0.879206 134 109 82 255 4
-0.051225 -0.004980 0.505891 0.288931 -0.399875 -0.869838 134 109 82 255 4
-0.050543 -0.004983 0.506185 0.314913 -0.405044 -0.858353 134 108 81 255 4
-0.049861 -0.004986 0.506498 0.337141 -0.409001 -0.847971 134 107 81 255 4
-0.049183 -0.004990 0.506848 0.363046 -0.413536 -0.834976 133 106 79 255 4
-0.048507 -0.004993 0.507235 0.387297 -0.420192 -0.820634 131 104 79 255 4
-0.047830 -0.004997 0.507621 0.415269 -0.425084 -0.804273 132 105 80 255 4
-0.047144 -0.005000 0.507916 0.425516 -0.430446 -0.796023 131 104 79 255 4
-0.046460 -0.005003 0.508247 0.433565 -0.435969 -0.788640 130 103 78 255 4
-0.045773 -0.005006 0.508560 0.429095 -0.444204 -0.786486 129 102 77 255 4
-0.045087 -0.005010 0.508891 0.413230 -0.450699 -0.791272 127 101 76 255 4
-0.044420 -0.005015 0.509444 0.389378 -0.461560 -0.797087 127 100 75 255 4
-0.043752 -0.005021 0.510014 0.374640 -0.470769 -0.798763 126 99 74 255 4
-0.043088 -0.005027 0.510640 0.354339 -0.482091 -0.801269 126 97 73 255 4
-0.042431 -0.005034 0.511377 0.331531 -0.493356 -0.804169 126 96 71 255 4
-0.041787 -0.005043 0.512297 0.304180 -0.498927 -0.811509 125 94 69 255 4
-0.041146 -0.005053 0.513291 0.247764 -0.514116 -0.821156 125 93 68 255 4
-0.040507 -0.005063 0.514340 0.202808 -0.517117 -0.831540 126 94 68 255 4
-0.039872 -0.005075 0.515482 0.145253 -0.524299 -0.839054 127 96 70 255 4
-0.039232 -0.005086 0.516605 0.090881 -0.529212 -0.843608 132 102 76 255 1
-0.038544 -0.005091 0.517120 0.015384 -0.515089 -0.856999 137 108 81 255 1
-0.037829 -0.005092 0.517286 -0.061261 -0.488606 -0.870351 138 108 80 255 1
-0.037095 -0.005091 0.517194 -0.118417 -0.475083 -0.871937 133 105 77 255 1
-0.036348 -0.005089 0.516918 -0.185231 -0.439972 -0.878700 127 100 73 255 1
-0.035573 -0.005082 0.516218 -0.249961 -0.396950 -0.883148 123 94 66 255 1
-0.034734 -0.005065 0.514543 -0.297952 -0.357762 -0.885003 123 90 63 255 1
-0.033762 -0.005028 0.510788 -0.348547 -0.330341 -0.877149 114 82 55 255 1
-0.032947 -0.005014 0.509296 -0.366892 -0.302008 -0.879876 121 90 62 255 1
-0.032149 -0.005001 0.508008 -0.360505 -0.275969 -0.890998 126 97 70 255 1
-0.031376 -0.004992 0.507051 -0.361463 -0.244492 -0.899760 128 101 75 255 1
-0.030624 -0.004985 0.506406 -0.364689 -0.209992 -0.907141 131 105 79 255 1
-0.029883 -0.004981 0.505928 -0.360293 -0.168370 -0.917519 134 107 81 255 1
-0.029149 -0.004977 0.505541 -0.367073 -0.136540 -0.920116 134 107 81 255 1
-0.028422 -0.004974 0.505246 -0.357262 -0.097900 -0.928859 136 108 83 255 1
-0.027700 -0.004972 0.505044 -0.347297 -0.066195 -0.935416 139 110 85 255 1
-0.026981 -0.004970 0.504878 -0.324651 -0.041112 -0.944940 141 110 85 255 1
-0.026266 -0.004969 0.504786 -0.287296 -0.021559 -0.957599 143 111 85 255 1
-0.025552 -0.004968 0.504694 -0.260353 -0.007679 -0.965483 141 109 84 255 1
-0.024837 -0.004967 0.504602 -0.219417 0.004081 -0.975623 139 106 83 255 1
-0.024123 -0.004967 0.504510 -0.186496 0.016542 -0.982316 136 103 80 255 1
-0.023412 -0.004966 0.504473 -0.160533 0.031952 -0.986513 134 101 79 255 1
-0.022704 -0.004967 0.504510 -0.138543 0.050059 -0.989090 130 97 75 255 1
-0.022000 -0.004968 0.504621 -0.120486 0.062466 -0.990748 125 93 71 255 1
-0.021299 -0.004970 0.504842 -0.096192 0.081884 -0.991989 120 89 67 255 1
-0.020601 -0.004973 0.505118 -0.074002 0.091755 -0.993028 117 87 66 255 1
-0.019902 -0.004975 0.505412 -0.050417 0.107453 -0.992931 116 89 68 255 1
-0.019198 -0.004977 0.505596 -0.028680 0.119143 -0.992463 116 89 67 255 1
-0.018488 -0.004977 0.505615 -0.002374 0.135982 -0.990708 113 84 64 255 1
-0.017770 -0.004976 0.505431 0.022057 0.149806 -0.988469 114 85 65 255 1
-0.017050 -0.004973 0.505154 0.044450 0.160034 -0.986110 117 90 68 255 1
-0.016329 -0.004970 0.504823 0.067996 0.161382 -0.984547 126 98 74 255 1
-0.015609 -0.004966 0.504492 0.098184 0.166690 -0.981109 131 104 80 255 1
-0.014893 -0.004964 0.504289 0.117676 0.169113 -0.978546 131 106 82 255 1
-0.014180 -0.004963 0.504142 0.138383 0.169357 -0.975791 130 106 82 255 1
-0.013469 -0.004962 0.504068 0.159661 0.168003 -0.972771 131 106 82 255 1
-0.012760 -0.004962 0.504050 0.175307 0.160881 -0.971280 131 105 81 255 1
-0.012051 -0.004962 0.504068 0.197245 0.151028 -0.968651 130 105 81 255 1
-0.011344 -0.004963 0.504142 0.202147 0.130898 -0.970568 130 105 81 255 1
-0.010637 -0.004964 0.504252 0.206568 0.107940 -0.972460 129 105 80 255 1
-0.009932 -0.004966 0.504437 0.218873 0.094640 -0.971153 127 104 79 255 1
-0.009227 -0.004969 0.504713 0.233530 0.074035 -0.969527 125 103 78 255 1
-0.008523 -0.004972 0.505026 0.251878 0.061411 -0.965809 122 102 77 255 1
-0.007819 -0.004975 0.505412 0.254286 0.033149 -0.966561 121 100 76 255 1
-0.007114 -0.004980 0.505872 0.263576 0.011560 -0.964569 119 98 73 255 1
-0.006410 -0.004986 0.506443 0.267335 -0.019255 -0.963411 117 95 71 255 1
-0.005705 -0.004992 0.507051 0.284303 -0.033851 -0.958137 112 89 66 255 1
-0.004998 -0.004998 0.507676 0.276070 -0.068852 -0.958668 108 85 62 255 1
-0.004291 -0.005006 0.508542 0.287114 -0.080256 -0.954528 103 80 58 255 1
-0.003582 -0.005015 0.509462 0.287527 -0.089379 -0.953593 98 75 54 255 1
-0.002872 -0.005025 0.510475 0.287881 -0.095486 -0.952894 91 69 49 255 1
-0.002159 -0.005038 0.511726 0.292230 -0.100488 -0.951054 84 65 44 255 1
-0.001443 -0.005050 0.512978 0.294570 -0.114284 -0.948772 84 62 43 255 1
-0.158967 -0.004699 0.556828 -0.693928 -0.648056 -0.313828 104 88 66 255 3
-0.149372 -0.004437 0.525809 0.154292 0.034381 -0.987427 118 86 62 255 3
-0.148518 -0.004433 0.525404 0.153629 0.033840 -0.987549 118 86 62 255 3
-0.147717 -0.004432 0.525183 0.152506 0.033216 -0.987744 119 86 61 255 3
-0.146922 -0.004430 0.524981 0.149390 0.030786 -0.988299 123 89 63 255 3
-0.146142 -0.004429 0.524833 0.140427 0.024853 -0.989779 125 90 64 255 3
-0.145374 -0.004428 0.524723 0.129817 0.019249 -0.991351 127 92 65 255 3
-0.144600 -0.004427 0.524594 0.116522 0.011377 -0.993123 125 92 66 255 3
-0.143842 -0.004426 0.524520 0.096414 -0.001051 -0.995341 120 89 63 255 3
-0.143089 -0.004425 0.524465 0.078942 -0.011412 -0.996814 120 89 63 255 3
-0.142332 -0.004425 0.524392 0.051008 -0.027663 -0.998315 117 87 61 255 3
-0.141619 -0.004426 0.524484 0.024667 -0.044033 -0.998725 106 77 54 255 3
-0.140911 -0.004427 0.524594 -0.000868 -0.057843 -0.998325 103 75 52 255 3
-0.140238 -0.004429 0.524833 -0.022187 -0.069619 -0.997327 97 70 48 255 3
-0.139588 -0.004431 0.525165 -0.044378 -0.081008 -0.995725 84 59 41 255 3
-0.138995 -0.004436 0.525717 -0.059754 -0.088142 -0.994314 84 59 41 255 3
-0.138459 -0.004443 0.526490 -0.074657 -0.095153 -0.992659 71 56 43 255 3
-0.115161 -0.004401 0.521575 -0.242479 -0.419747 -0.874652 89 70 51 255 3
-0.113866 -0.004379 0.519016 -0.216256 -0.467030 -0.857389 100 71 50 255 3
-0.112952 -0.004372 0.518169 -0.185634 -0.492442 -0.850318 99 71 50 255 3
-0.112060 -0.004366 0.517415 -0.199644 -0.496454 -0.844794 102 81 63 255 3
-0.110694 -0.004341 0.514451 -0.226502 -0.511453 -0.828923 115 110 97 255 3
-0.109746 -0.004332 0.513402 -0.237195 -0.519215 -0.821069 111 110 99 255 3
-0.108325 -0.004304 0.510106 -0.272646 -0.517465 -0.811107 115 113 102 255 4
-0.107522 -0.004301 0.509701 -0.276158 -0.521279 -0.807468 111 111 100 255 4
-0.106863 -0.004303 0.509978 -0.273605 -0.528390 -0.803706 110 110 99 255 4
-0.106253 -0.004308 0.510493 -0.268412 -0.535459 -0.800774 112 112 101 255 4
-0.105592 -0.004310 0.510769 -0.264345 -0.543451 -0.796733 114 114 103 255 4
-0.104791 -0.004306 0.510364 -0.264955 -0.546779 -0.794249 112 112 101 255 4
-0.103986 -0.004303 0.509941 -0.264464 -0.552842 -0.790205 111 111 100 255 4
-0.103187 -0.004299 0.509536 -0.263374 -0.554794 -0.789201 111 110 99 255 4
-0.102389 -0.004296 0.509131 -0.258870 -0.558439 -0.788119 118 117 106 255 4
-0.101648 -0.004295 0.509002 -0.250610 -0.562545 -0.787869 131 131 119 255 4
-0.100913 -0.004294 0.508910 -0.241632 -0.567958 -0.786789 128 123 109 255 4
-0.100292 -0.004298 0.509388 -0.233063 -0.574475 -0.784641 121 101 81 255 4
-0.099496 -0.004295 0.508983 -0.221223 -0.572390 -0.789576 122 97 76 255 4
-0.098709 -0.004292 0.508615 -0.206384 -0.568685 -0.796243 126 99 77 255 4
-0.097916 -0.004288 0.508210 -0.192223 -0.566753 -0.801150 126 98 76 255 4
-0.097120 -0.004285 0.507787 -0.173754 -0.559698 -0.810277 127 98 76 255 4
-0.096322 -0.004281 0.507345 -0.153694 -0.554342 -0.817975 128 99 76 255 4
-0.095536 -0.004278 0.506959 -0.134586 -0.547896 -0.825649 128 100 76 255 4
-0.094792 -0.004276 0.506793 -0.117380 -0.537676 -0.834941 128 100 77 255 4
-0.094055 -0.004275 0.506664 -0.107497 -0.534428 -0.838350 127 100 77 255 4
-0.093319 -0.004274 0.506535 -0.096902 -0.529494 -0.842761 127 101 77 255 4
-0.092583 -0.004273 0.506406 -0.088036 -0.525071 -0.846493 128 101 77 255 4
-0.091848 -0.004272 0.506277 -0.074905 -0.521643 -0.849869 128 101 76 255 4
-0.091112 -0.004271 0.506149 -0.062878 -0.519827 -0.851954 129 101 77 255 4
-0.090387 -0.004270 0.506075 -0.051325 -0.513650 -0.856463 129 101 77 255 4
-0.089679 -0.004270 0.506093 -0.041637 -0.511570 -0.858232 130 102 77 255 4
-0.088967 -0.004270 0.506093 -0.035433 -0.509377 -0.859814 131 102 77 255 4
-0.088265 -0.004271 0.506149 -0.028033 -0.506172 -0.861977 133 104 78 255 4
-0.087563 -0.004271 0.506204 -0.024042 -0.502653 -0.864154 134 105 79 255 4
-0.086860 -0.004272 0.506259 -0.018345 -0.494611 -0.868921 134 106 80 255 4
-0.086155 -0.004272 0.506296 -0.009465 -0.486161 -0.873818 135 108 82 255 4
-0.085436 -0.004272 0.506259 -0.003300 -0.481514 -0.876432 134 107 81 255 4
-0.084724 -0.004272 0.506259 0.002866 -0.478249 -0.878219 134 108 82 255 4
-0.084009 -0.004272 0.506241 0.006166 -0.474141 -0.880427 132 107 81 255 4
-0.083307 -0.004272 0.506296 0.007605 -0.469838 -0.882720 130 103 79 255 4
-0.082676 -0.004276 0.506793 0.007294 -0.467874 -0.883765 127 100 77 255 4
-0.082008 -0.004279 0.507069 0.002626 -0.465295 -0.885152 123 97 73 255 4
-0.081253 -0.004276 0.506811 -0.002618 -0.456988 -0.889469 124 99 75 255 4
-0.080511 -0.004275 0.506627 -0.010631 -0.447397 -0.894272 129 105 80 255 4
-0.079819 -0.004276 0.506756 -0.019074 -0.441195 -0.897209 131 108 83 255 4
-0.079109 -0.004276 0.506774 -0.028519 -0.436145 -0.899424 133 110 85 255 4
-0.078396 -0.004276 0.506774 -0.039772 -0.430314 -0.901803 134 110 85 255 4
-0.077681 -0.004276 0.506756 -0.050292 -0.425577 -0.903524 133 110 84 255 4
-0.076968 -0.004276 0.506756 -0.063294 -0.425318 -0.902828 135 111 85 255 4
-0.076258 -0.004276 0.506774 -0.075451 -0.420860 -0.903982 134 111 85 255 4
-0.075546 -0.004276 0.506774 -0.086705 -0.418960 -0.903855 134 112 86 255 4
-0.074836 -0.004276 0.506793 -0.097476 -0.414290 -0.904910 133 112 85 255 4
-0.074123 -0.004276 0.506793 -0.107992 -0.413339 -0.904151 134 111 85 255 4
-0.073410 -0.004276 0.506793 -0.119235 -0.410317 -0.904114 134 111 84 255 4
-0.072698 -0.004276 0.506793 -0.128180 -0.408196 -0.903850 135 110 84 255 4
-0.071982 -0.004276 0.506774 -0.136356 -0.406058 -0.903617 135 110 84 255 4
-0.071238 -0.004274 0.506554 -0.143000 -0.404007 -0.903509 135 109 84 255 4
-0.070495 -0.004272 0.506333 -0.146948 -0.399271 -0.904980 135 109 84 255 4
-0.069753 -0.004271 0.506112 -0.150805 -0.397398 -0.905170 136 110 84 255 4
-0.069008 -0.004269 0.505872 -0.151237 -0.391305 -0.907749 136 110 84 255 4
-0.068252 -0.004266 0.505541 -0.149617 -0.386836 -0.909930 135 110 84 255 4
-0.067495 -0.004263 0.505191 -0.143538 -0.380904 -0.913405 136 111 85 255 4
-0.066738 -0.004260 0.504842 -0.136734 -0.375216 -0.916797 135 110 83 255 4
-0.066001 -0.004258 0.504639 -0.127805 -0.371676 -0.919523 137 111 84 255 4
-0.065277 -0.004257 0.504529 -0.118045 -0.369947 -0.921523 138 111 83 255 4
-0.064556 -0.004256 0.504437 -0.104971 -0.369035 -0.923468 138 111 84 255 4
-0.063833 -0.004256 0.504326 -0.091904 -0.366966 -0.925683 138 113 84 255 4
-0.063107 -0.004254 0.504197 -0.076438 -0.364765 -0.927957 138 112 84 255 4
-0.062385 -0.004253 0.504087 -0.058877 -0.362921 -0.929958 136 110 83 255 4
-0.061660 -0.004252 0.503958 -0.038320 -0.360985 -0.931784 136 110 83 255 4
-0.060938 -0.004251 0.503847 -0.017203 -0.358366 -0.933423 136 110 84 255 4
-0.060216 -0.004251 0.503737 0.003598 -0.354933 -0.934885 135 109 84 255 4
-0.059490 -0.004249 0.503590 0.026952 -0.352013 -0.935607 136 110 85 255 4
-0.058784 -0.004249 0.503608 0.050063 -0.354308 -0.933788 136 112 86 255 4
-0.058084 -0.004250 0.503682 0.074180 -0.351023 -0.933424 139 115 88 255 4
-0.057389 -0.004251 0.503792 0.095279 -0.351649 -0.931271 141 116 89 255 4
-0.056695 -0.004252 0.503921 0.117377 -0.351726 -0.928715 140 116 89 255 4
-0.055998 -0.004253 0.504032 0.138780 -0.352261 -0.925555 138 114 88 255 4
-0.055301 -0.004254 0.504142 0.160908 -0.353373 -0.921540 136 113 87 255 4
-0.054608 -0.004255 0.504289 0.178078 -0.352623 -0.918665 136 113 86 255 4
-0.053917 -0.004257 0.504455 0.198255 -0.354955 -0.913620 135 110 84 255 4
-0.053231 -0.004258 0.504676 0.220403 -0.358864 -0.906995 135 110 84 255 4
-0.052548 -0.004261 0.504934 0.243008 -0.363225 -0.899452 134 109 82 255 4
-0.051868 -0.004263 0.505228 0.261589 -0.366424 -0.892919 134 109 82 255 4
-0.051187 -0.004266 0.505523 0.284828 -0.371213 -0.883784 134 109 81 255 4
-0.050506 -0.004268 0.505817 0.310670 -0.374949 -0.873440 134 108 80 255 4
-0.049827 -0.004271 0.506149 0.334338 -0.382881 -0.861174 134 108 80 255 4
-0.049149 -0.004274 0.506498 0.355957 -0.385945 -0.851082 133 106 79 255 4
-0.048472 -0.004277 0.506866 0.385730 -0.394525 -0.834004 133 105 79 255 4
-0.047796 -0.004280 0.507253 0.411861 -0.400386 -0.818573 133 106 80 255 4
-0.047113 -0.004283 0.507584 0.426506 -0.405617 -0.808435 131 104 79 255 4
-0.046430 -0.004286 0.507916 0.432941 -0.412411 -0.801548 131 104 79 255 4
-0.045742 -0.004288 0.508210 0.429217 -0.418624 -0.800329 129 103 78 255 4
-0.045056 -0.004291 0.508542 0.412483 -0.429192 -0.803525 128 102 76 255 4
-0.044386 -0.004295 0.509057 0.396272 -0.443756 -0.803772 128 101 76 255 4
-0.043718 -0.004300 0.509609 0.375930 -0.451731 -0.809084 127 100 74 255 4
-0.043054 -0.004305 0.510235 0.365971 -0.465615 -0.805771 127 98 73 255 4
-0.042397 -0.004312 0.510972 0.335940 -0.479485 -0.810703 126 96 71 255 4
-0.041754 -0.004319 0.511892 0.308237 -0.483097 -0.819516 126 93 69 255 4
-0.041112 -0.004328 0.512868 0.260879 -0.495737 -0.828364 125 93 68 255 4
-0.040475 -0.004337 0.513935 0.205335 -0.510352 -0.835092 125 93 67 255 4
-0.039836 -0.004346 0.515022 0.155077 -0.509126 -0.846606 126 94 68 255 4
-0.039196 -0.004355 0.516126 0.096269 -0.512126 -0.853498 128 97 71 255 1
-0.038532 -0.004362 0.516954 0.029734 -0.508276 -0.860681 134 104 75 255 1
-0.037818 -0.004364 0.517139 -0.030881 -0.491436 -0.870366 136 106 77 255 1
-0.037091 -0.004364 0.517139 -0.113139 -0.467713 -0.876609 133 105 76 255 1
-0.036347 -0.004362 0.516899 -0.173807 -0.430108 -0.885889 125 99 72 255 1
-0.035582 -0.004357 0.516347 -0.230956 -0.398225 -0.887736 120 91 65 255 1
-0.034774 -0.004347 0.515132 -0.282403 -0.359137 -0.889533 116 87 60 255 1
-0.033756 -0.004309 0.510695 -0.339393 -0.340479 -0.876862 112 83 56 255 1
-0.032929 -0.004295 0.509020 -0.353905 -0.305180 -0.884091 121 91 63 255 1
-0.032125 -0.004283 0.507621 -0.348531 -0.276588 -0.895559 127 97 70 255 1
-0.031359 -0.004276 0.506774 -0.344186 -0.243738 -0.906713 129 101 75 255 1
-0.030611 -0.004271 0.506204 -0.352215 -0.202271 -0.913800 133 105 80 255 1
-0.029872 -0.004267 0.505744 -0.344110 -0.160859 -0.925048 135 107 81 255 1
-0.029139 -0.004264 0.505357 -0.341266 -0.116944 -0.932664 136 108 82 255 1
-0.028415 -0.004262 0.505118 -0.334062 -0.078332 -0.939290 138 110 84 255 1
-0.027694 -0.004261 0.504934 -0.328794 -0.045438 -0.943308 139 111 85 255 1
-0.026975 -0.004259 0.504768 -0.307747 -0.014170 -0.951363 141 111 85 255 1
-0.026259 -0.004258 0.504639 -0.274015 0.004155 -0.961716 142 111 84 255 1
-0.025543 -0.004257 0.504529 -0.248194 0.022470 -0.968450 140 109 83 255 1
-0.024828 -0.004256 0.504418 -0.214039 0.035100 -0.976194 137 105 81 255 1
-0.024115 -0.004256 0.504326 -0.177739 0.046987 -0.982955 131 100 78 255 1
-0.023404 -0.004255 0.504289 -0.150762 0.059894 -0.986754 129 98 76 255 1
-0.022694 -0.004255 0.504271 -0.121087 0.082055 -0.989245 126 94 72 255 1
-0.021988 -0.004256 0.504363 -0.105814 0.095519 -0.989788 124 91 69 255 1
-0.021289 -0.004258 0.504602 -0.090333 0.106298 -0.990223 123 89 66 255 1
-0.020590 -0.004260 0.504860 -0.059227 0.131041 -0.989606 121 89 65 255 1
-0.019890 -0.004262 0.505118 -0.040674 0.146413 -0.988387 118 88 65 255 1
-0.019188 -0.004264 0.505339 -0.014924 0.163067 -0.986502 115 88 65 255 1
-0.018481 -0.004265 0.505431 0.006983 0.174188 -0.984688 114 86 64 255 1
-0.017769 -0.004265 0.505412 0.029950 0.182054 -0.982832 117 88 65 255 1
-0.017054 -0.004263 0.505265 0.052715 0.184759 -0.981369 123 94 70 255 1
-0.016335 -0.004261 0.505026 0.076224 0.191575 -0.978514 125 97 73 255 1
-0.015616 -0.004259 0.504713 0.099789 0.192660 -0.976178 129 103 78 255 1
-0.014900 -0.004257 0.504510 0.121314 0.192312 -0.973806 128 104 80 255 1
-0.014187 -0.004256 0.504400 0.137294 0.185336 -0.973037 127 103 80 255 1
-0.013477 -0.004256 0.504363 0.162939 0.179742 -0.970126 128 103 80 255 1
-0.012767 -0.004256 0.504326 0.167385 0.160672 -0.972711 128 102 79 255 1
-0.012057 -0.004256 0.504326 0.185797 0.149279 -0.971182 128 103 80 255 1
-0.011351 -0.004256 0.504437 0.190554 0.124335 -0.973771 126 102 78 255 1
-0.010644 -0.004258 0.504584 0.203730 0.112060 -0.972593 127 104 79 255 1
-0.009938 -0.004259 0.504768 0.209029 0.095847 -0.973201 125 102 77 255 1
-0.009233 -0.004261 0.505026 0.222074 0.067726 -0.972675 124 101 76 255 1
-0.008528 -0.004264 0.505357 0.229818 0.031816 -0.972714 122 100 75 255 1
-0.007825 -0.004268 0.505799 0.233747 0.016881 -0.972151 120 98 74 255 1
-0.007120 -0.004272 0.506259 0.251370 0.000789 -0.967891 116 95 71 255 1
-0.006414 -0.004276 0.506774 0.241905 -0.035129 -0.969664 113 92 68 255 1
-0.005709 -0.004282 0.507419 0.260937 -0.051112 -0.964002 109 87 64 255 1
-0.005003 -0.004288 0.508229 0.257683 -0.069975 -0.963692 104 82 60 255 1
-0.004297 -0.004297 0.509186 0.269007 -0.082288 -0.959616 102 79 58 255 1
-0.003586 -0.004304 0.510033 0.262398 -0.106171 -0.959101 96 75 54 255 1
-0.002875 -0.004312 0.511064 0.266133 -0.111586 -0.957456 91 70 51 255 1
-0.002162 -0.004324 0.512389 0.270010 -0.119627 -0.955397 84 64 46 255 1
-0.001447 -0.004342 0.514543 0.282490 -0.109983 -0.952945 79 63 44 255 1
-0.159602 -0.003912 0.556312 -0.698637 -0.643582 -0.312582 100 85 64 255 3
-0.150074 -0.003696 0.525680 0.154292 0.034381 -0.987427 118 86 62 255 3
-0.149225 -0.003694 0.525294 0.153629 0.033840 -0.987549 117 84 59 255 3
-0.148419 -0.003692 0.525054 0.152506 0.033216 -0.987744 120 87 61 255 3
-0.147618 -0.003690 0.524833 0.145373 0.027299 -0.989000 123 89 63 255 3
-0.146839 -0.003689 0.524686 0.143838 0.026694 -0.989241 123 88 62 255 3
-0.146086 -0.003689 0.524631 0.142303 0.025684 -0.989490 123 89 63 255 3
-0.145323 -0.003688 0.524539 0.129459 0.017209 -0.991435 124 90 64 255 3
-0.144565 -0.003688 0.524465 0.115351 0.009066 -0.993283 121 89 64 255 3
-0.143812 -0.003687 0.524410 0.098907 -0.001527 -0.995096 118 86 61 255 3
-0.143059 -0.003687 0.524355 0.083201 -0.010961 -0.996472 112 82 58 255 3
-0.142347 -0.003688 0.524447 0.055454 -0.029108 -0.998037 107 78 55 255 3
-0.141634 -0.003688 0.524539 0.030174 -0.043815 -0.998584 101 72 51 255 3
-0.140966 -0.003690 0.524797 0.004884 -0.058742 -0.998261 96 70 49 255 3
-0.140321 -0.003693 0.525146 -0.014661 -0.069014 -0.997508 86 62 43 255 3
-0.139725 -0.003696 0.525680 -0.034924 -0.079390 -0.996232 78 53 38 255 3
-0.139195 -0.003702 0.526472 -0.049893 -0.087094 -0.994950 73 55 41 255 3
-0.113995 -0.003654 0.519605 -0.238718 -0.452018 -0.859473 95 69 49 255 3
-0.113048 -0.003647 0.518611 -0.203905 -0.478872 -0.853876 96 71 51 255 3
-0.111661 -0.003625 0.515574 -0.233548 -0.494845 -0.837009 103 90 75 255 3
-0.110528 -0.003612 0.513678 -0.254219 -0.499683 -0.828063 110 108 96 255 3
-0.108223 -0.003584 0.509628 -0.289334 -0.505766 -0.812703 113 112 101 255 4
-0.107405 -0.003580 0.509149 -0.291504 -0.508918 -0.809955 108 109 98 255 4
-0.106817 -0.003584 0.509757 -0.284782 -0.520009 -0.805289 110 110 99 255 4
-0.106211 -0.003588 0.510290 -0.279700 -0.526939 -0.802561 114 114 102 255 4
-0.105428 -0.003586 0.509978 -0.278196 -0.531697 -0.799941 113 113 102 255 4
-0.104636 -0.003583 0.509609 -0.279955 -0.536109 -0.796375 111 111 100 255 4
-0.103836 -0.003581 0.509204 -0.275223 -0.539075 -0.796022 111 111 100 255 4
-0.103038 -0.003578 0.508799 -0.272025 -0.540860 -0.795910 111 111 100 255 4
-0.102271 -0.003576 0.508542 -0.262709 -0.546105 -0.795458 125 124 113 255 4
-0.101541 -0.003575 0.508468 -0.254513 -0.546796 -0.797645 131 130 118 255 4
-0.100822 -0.003575 0.508450 -0.241818 -0.547955 -0.800793 127 118 101 255 4
-0.100169 -0.003577 0.508763 -0.233031 -0.554783 -0.798694 122 98 78 255 4
-0.099381 -0.003575 0.508394 -0.220017 -0.551730 -0.804479 123 97 76 255 4
-0.098584 -0.003572 0.507971 -0.201812 -0.545048 -0.813754 126 98 76 255 4
-0.097788 -0.003569 0.507548 -0.188017 -0.539568 -0.820680 127 98 75 255 4
-0.097004 -0.003566 0.507179 -0.169237 -0.535482 -0.827417 127 98 75 255 4
-0.096221 -0.003564 0.506811 -0.145206 -0.527503 -0.837052 129 99 76 255 4
-0.095442 -0.003561 0.506461 -0.126552 -0.519743 -0.844898 129 100 77 255 4
-0.094699 -0.003560 0.506296 -0.114074 -0.514926 -0.849610 129 101 77 255 4
-0.093956 -0.003559 0.506130 -0.103905 -0.512276 -0.852512 128 101 77 255 4
-0.093217 -0.003558 0.505983 -0.092309 -0.503378 -0.859121 127 101 77 255 4
-0.092475 -0.003557 0.505817 -0.081643 -0.497593 -0.863560 128 101 77 255 4
-0.091737 -0.003556 0.505670 -0.068474 -0.487798 -0.870267 128 101 77 255 4
-0.090996 -0.003555 0.505504 -0.055947 -0.481893 -0.874442 129 101 77 255 4
-0.090282 -0.003554 0.505486 -0.046670 -0.481351 -0.875285 129 101 77 255 4
-0.089584 -0.003555 0.505559 -0.039749 -0.483638 -0.874365 130 102 78 255 4
-0.088886 -0.003555 0.505633 -0.030790 -0.481454 -0.875931 131 103 78 255 4
-0.088191 -0.003556 0.505725 -0.022377 -0.483101 -0.875279 132 104 79 255 4
-0.087493 -0.003557 0.505799 -0.016790 -0.482496 -0.875737 133 105 80 255 4
-0.086791 -0.003557 0.505854 -0.007536 -0.473101 -0.880976 133 106 80 255 4
-0.086086 -0.003557 0.505891 -0.002888 -0.467511 -0.883983 134 108 82 255 4
-0.085377 -0.003557 0.505909 0.003959 -0.461937 -0.886904 134 108 82 255 4
-0.084663 -0.003557 0.505891 0.010951 -0.456574 -0.889618 134 109 83 255 4
-0.083951 -0.003557 0.505891 0.016278 -0.451652 -0.892046 132 107 81 255 4
-0.083252 -0.003558 0.505964 0.017508 -0.444706 -0.895506 130 105 80 255 4
-0.082562 -0.003559 0.506093 0.018593 -0.432365 -0.901507 129 103 80 255 4
-0.081862 -0.003559 0.506167 0.014195 -0.429558 -0.902928 128 103 79 255 4
-0.081162 -0.003560 0.506241 0.007973 -0.424785 -0.905259 132 107 82 255 4
-0.080464 -0.003560 0.506333 -0.000944 -0.421795 -0.906691 131 107 83 255 4
-0.079761 -0.003561 0.506388 -0.010898 -0.416739 -0.908961 132 109 85 255 4
-0.079046 -0.003561 0.506369 -0.021188 -0.410459 -0.911633 134 111 86 255 4
-0.078334 -0.003561 0.506369 -0.031387 -0.404958 -0.913796 133 111 85 255 4
-0.077622 -0.003561 0.506369 -0.042646 -0.397278 -0.916707 134 111 85 255 4
-0.076904 -0.003560 0.506333 -0.055897 -0.396854 -0.916178 135 111 85 255 4
-0.076195 -0.003560 0.506351 -0.069457 -0.394983 -0.916059 135 112 86 255 4
-0.075485 -0.003561 0.506369 -0.082385 -0.392337 -0.916125 135 112 86 255 4
-0.074773 -0.003561 0.506369 -0.093818 -0.387809 -0.916953 135 112 85 255 4
-0.074064 -0.003561 0.506388 -0.105412 -0.386403 -0.916287 135 112 85 255 4
-0.073352 -0.003561 0.506388 -0.116746 -0.383695 -0.916050 136 111 85 255 4
-0.072639 -0.003561 0.506388 -0.125129 -0.382850 -0.915297 136 111 85 255 4
-0.071925 -0.003561 0.506369 -0.133933 -0.378562 -0.915835 136 111 84 255 4
-0.071187 -0.003559 0.506185 -0.141774 -0.374414 -0.916359 137 110 84 255 4
-0.070429 -0.003557 0.505854 -0.146197 -0.369719 -0.917570 136 109 83 255 4
-0.069674 -0.003555 0.505541 -0.150452 -0.363379 -0.919413 136 110 84 255 4
-0.068926 -0.003553 0.505265 -0.148535 -0.360389 -0.920900 137 110 83 255 4
-0.068173 -0.003551 0.504952 -0.144757 -0.354335 -0.923846 136 110 84 255 4
-0.067431 -0.003549 0.504713 -0.140288 -0.348442 -0.926773 137 111 84 255 4
-0.066689 -0.003547 0.504473 -0.134408 -0.344813 -0.928999 137 111 84 255 4
-0.065958 -0.003546 0.504308 -0.126175 -0.342979 -0.930830 137 110 83 255 4
-0.065235 -0.003545 0.504197 -0.116092 -0.340378 -0.933095 137 110 83 255 4
-0.064511 -0.003545 0.504087 -0.103676 -0.338855 -0.935109 137 111 84 255 4
-0.063791 -0.003544 0.503995 -0.091093 -0.339170 -0.936304 137 111 83 255 4
-0.063066 -0.003543 0.503866 -0.073372 -0.335756 -0.939087 137 110 83 255 4
-0.062341 -0.003542 0.503737 -0.054561 -0.331272 -0.941957 137 110 83 255 4
-0.061617 -0.003541 0.503608 -0.033923 -0.328697 -0.943826 136 109 82 255 4
-0.060895 -0.003540 0.503498 -0.015024 -0.326987 -0.944909 135 108 82 255 4
-0.060165 -0.003539 0.503314 0.007856 -0.324546 -0.945837 136 109 83 255 4
-0.059447 -0.003538 0.503222 0.029635 -0.320835 -0.946671 137 110 84 255 4
-0.058748 -0.003539 0.503295 0.052704 -0.319993 -0.945953 137 111 85 255 4
-0.058055 -0.003540 0.503424 0.075123 -0.322140 -0.943707 138 113 87 255 4
-0.057357 -0.003541 0.503516 0.097267 -0.321838 -0.941785 140 115 88 255 4
-0.056659 -0.003541 0.503608 0.118151 -0.320591 -0.939820 139 114 88 255 4
-0.055961 -0.003542 0.503700 0.139688 -0.319836 -0.937119 136 112 86 255 4
-0.055265 -0.003543 0.503811 0.160152 -0.322381 -0.932964 135 113 87 255 4
-0.054569 -0.003543 0.503921 0.176328 -0.324348 -0.929358 134 112 86 255 4
-0.053878 -0.003545 0.504087 0.196746 -0.327196 -0.924248 134 111 85 255 4
-0.053192 -0.003546 0.504308 0.217310 -0.329709 -0.918732 133 110 83 255 4
-0.052510 -0.003548 0.504565 0.240100 -0.334492 -0.911300 134 110 83 255 4
-0.051830 -0.003550 0.504860 0.259207 -0.338339 -0.904621 134 110 82 255 4
-0.051152 -0.003552 0.505173 0.282001 -0.341973 -0.896398 133 109 81 255 4
-0.050473 -0.003554 0.505486 0.306353 -0.344980 -0.887207 133 108 80 255 4
-0.049796 -0.003557 0.505836 0.326577 -0.353545 -0.876558 134 107 80 255 4
-0.049119 -0.003559 0.506185 0.351539 -0.361578 -0.863529 134 106 80 255 4
-0.048442 -0.003562 0.506554 0.381142 -0.365687 -0.849119 132 105 79 255 4
-0.047764 -0.003565 0.506922 0.405036 -0.375283 -0.833732 133 106 80 255 4
-0.047082 -0.003567 0.507253 0.427477 -0.384230 -0.818309 131 105 80 255 4
-0.046398 -0.003569 0.507566 0.431001 -0.386379 -0.815444 130 104 80 255 4
-0.045709 -0.003571 0.507842 0.426659 -0.393706 -0.814222 129 103 78 255 4
-0.045025 -0.003573 0.508192 0.416928 -0.405263 -0.813592 128 102 77 255 4
-0.044354 -0.003577 0.508689 0.400058 -0.418820 -0.815195 127 101 76 255 4
-0.043686 -0.003581 0.509241 0.394815 -0.429824 -0.812018 127 101 75 255 4
-0.043026 -0.003585 0.509904 0.365745 -0.445687 -0.817064 127 100 75 255 4
-0.042365 -0.003590 0.510585 0.342975 -0.461326 -0.818258 126 96 71 255 4
-0.041722 -0.003597 0.511505 0.302669 -0.478943 -0.824018 126 93 69 255 4
-0.041080 -0.003603 0.512463 0.277185 -0.477228 -0.833920 124 92 67 255 4
-0.040444 -0.003611 0.513549 0.220756 -0.490577 -0.842971 124 92 66 255 4
-0.039805 -0.003619 0.514617 0.166412 -0.494811 -0.852918 127 94 68 255 4
-0.039159 -0.003626 0.515647 0.104327 -0.502788 -0.858091 127 94 68 255 1
-0.038518 -0.003634 0.516770 0.048837 -0.499800 -0.864763 130 97 70 255 1
-0.037811 -0.003636 0.517047 -0.025472 -0.481678 -0.875978 132 101 73 255 1
-0.037095 -0.003637 0.517194 -0.093042 -0.463172 -0.881371 132 102 74 255 1
-0.036354 -0.003635 0.517010 -0.160098 -0.432532 -0.887291 123 97 70 255 1
-0.035597 -0.003632 0.516568 -0.217800 -0.393087 -0.893334 115 88 62 255 1
-0.034813 -0.003626 0.515721 -0.270017 -0.362047 -0.892195 110 82 54 255 1
-0.033762 -0.003592 0.510788 -0.330402 -0.341527 -0.879883 110 81 55 255 1
-0.032915 -0.003578 0.508799 -0.340996 -0.301636 -0.890358 120 91 64 255 1
-0.032104 -0.003567 0.507290 -0.334063 -0.274639 -0.901651 127 96 70 255 1
-0.031347 -0.003562 0.506590 -0.331720 -0.238640 -0.912695 133 102 77 255 1
-0.030606 -0.003559 0.506112 -0.333049 -0.200661 -0.921311 134 105 79 255 1
-0.029867 -0.003556 0.505651 -0.330054 -0.155031 -0.931144 136 108 81 255 1
-0.029137 -0.003553 0.505320 -0.324069 -0.111662 -0.939420 137 107 81 255 1
-0.028414 -0.003552 0.505099 -0.317791 -0.062321 -0.946111 138 108 83 255 1
-0.027691 -0.003550 0.504878 -0.304184 -0.026546 -0.952243 141 112 85 255 1
-0.026970 -0.003549 0.504676 -0.287843 0.008250 -0.957642 142 111 86 255 3
-0.026253 -0.003548 0.504529 -0.252631 0.029014 -0.967127 140 109 83 255 1
-0.025537 -0.003547 0.504400 -0.221370 0.043149 -0.974235 138 107 82 255 1
-0.024820 -0.003546 0.504252 -0.211140 0.052244 -0.976059 135 103 78 255 1
-0.024100 -0.003544 0.504032 -0.167031 0.067542 -0.983635 128 96 74 255 1
-0.023381 -0.003543 0.503792 -0.135549 0.081592 -0.987405 125 93 71 255 1
-0.022664 -0.003541 0.503608 -0.109467 0.101189 -0.988827 122 90 68 255 1
-0.021967 -0.003543 0.503866 -0.093670 0.121088 -0.988212 121 89 67 255 1
-0.021274 -0.003546 0.504252 -0.078005 0.134704 -0.987811 123 90 67 255 1
-0.020580 -0.003548 0.504621 -0.057693 0.147891 -0.987320 123 90 67 255 1
-0.019882 -0.003550 0.504897 -0.032835 0.164324 -0.985860 120 88 64 255 1
-0.019181 -0.003552 0.505154 -0.010622 0.180912 -0.983442 118 86 64 255 1
-0.018477 -0.003553 0.505320 0.015379 0.198732 -0.979933 117 86 63 255 1
-0.017770 -0.003554 0.505431 0.037548 0.206723 -0.977679 120 89 65 255 1
-0.017059 -0.003554 0.505431 0.061117 0.215816 -0.974520 124 93 68 255 1
-0.016344 -0.003553 0.505302 0.083848 0.222949 -0.971217 126 97 71 255 1
-0.015626 -0.003551 0.505044 0.100408 0.220978 -0.970096 125 99 74 255 1
-0.014908 -0.003550 0.504805 0.124937 0.219663 -0.967543 125 102 78 255 1
-0.014196 -0.003549 0.504731 0.133909 0.204697 -0.969622 124 102 78 255 1
-0.013486 -0.003549 0.504713 0.153394 0.195661 -0.968601 125 101 78 255 1
-0.012776 -0.003549 0.504694 0.166181 0.176739 -0.970127 127 101 78 255 1
-0.012067 -0.003549 0.504713 0.179592 0.150276 -0.972195 126 101 78 255 1
-0.011358 -0.003549 0.504786 0.187917 0.127789 -0.973836 126 102 78 255 1
-0.010651 -0.003550 0.504915 0.193914 0.106894 -0.975177 125 101 77 255 1
-0.009946 -0.003552 0.505173 0.195443 0.069880 -0.978222 124 99 75 255 1
-0.009240 -0.003554 0.505431 0.202071 0.042592 -0.978444 123 99 74 255 1
-0.008536 -0.003557 0.505799 0.212598 0.021665 -0.976900 121 97 72 255 1
-0.007830 -0.003559 0.506167 0.210054 -0.014114 -0.977588 118 96 71 255 1
-0.007126 -0.003563 0.506682 0.223157 -0.022913 -0.974513 116 93 70 255 1
-0.006421 -0.003567 0.507290 0.219582 -0.058461 -0.973841 110 89 66 255 1
-0.005716 -0.003572 0.508026 0.229969 -0.079396 -0.969954 106 86 63 255 1
-0.005010 -0.003578 0.508891 0.234607 -0.093278 -0.967605 101 79 58 255 1
-0.004301 -0.003584 0.509757 0.243814 -0.102687 -0.964370 99 78 56 255 1
-0.003591 -0.003591 0.510659 0.249047 -0.115158 -0.961621 95 75 54 255 1
-0.002880 -0.003600 0.511929 0.249525 -0.118628 -0.961075 91 70 52 255 1
-0.002167 -0.003611 0.513530 0.257900 -0.123827 -0.958204 84 66 47 255 1
-0.001453 -0.003631 0.516421 0.277443 -0.112276 -0.954159 66 62 45 255 1
-0.160236 -0.003127 0.555797 -0.698637 -0.643582 -0.312582 104 87 66 255 3
-0.150724 -0.002955 0.525367 0.154292 0.034381 -0.987427 114 85 62 255 3
-0.149880 -0.002953 0.524999 0.153629 0.033840 -0.987549 116 84 60 255 3
-0.149105 -0.002953 0.524870 0.152506 0.033216 -0.987744 118 87 61 255 3
-0.148315 -0.002952 0.524686 0.143726 0.025989 -0.989276 122 90 63 255 3
-0.147536 -0.002951 0.524539 0.143838 0.026694 -0.989241 124 89 63 255 3
-0.146767 -0.002950 0.524428 0.142303 0.025684 -0.989490 123 88 62 255 3
-0.146014 -0.002950 0.524373 0.134504 0.019416 -0.990723 121 87 62 255 3
-0.145277 -0.002950 0.524373 0.130684 0.017149 -0.991276 120 87 62 255 3
-0.144534 -0.002950 0.524355 0.118448 0.009486 -0.992915 118 87 62 255 3
-0.143787 -0.002949 0.524318 0.097775 -0.003939 -0.995201 114 83 59 255 3
-0.143064 -0.002950 0.524373 0.084251 -0.012942 -0.996361 107 77 55 255 3
-0.142362 -0.002951 0.524502 0.060909 -0.027876 -0.997754 102 74 52 255 3
-0.141679 -0.002952 0.524705 0.035558 -0.043654 -0.998414 97 69 49 255 3
-0.141040 -0.002954 0.525073 0.012427 -0.056769 -0.998310 97 69 49 255 3
-0.140444 -0.002957 0.525607 -0.004871 -0.066243 -0.997792 82 59 41 255 3
-0.139925 -0.002961 0.526435 -0.021070 -0.075326 -0.996936 77 54 39 255 3
-0.114109 -0.002926 0.520121 -0.246703 -0.451355 -0.857564 89 69 51 255 3
-0.113116 -0.002919 0.518924 -0.213271 -0.475882 -0.853260 96 74 56 255 3
-0.111366 -0.002893 0.514212 -0.268986 -0.480999 -0.834438 103 97 83 255 3
-0.110409 -0.002887 0.513125 -0.274730 -0.492796 -0.825637 105 104 93 255 3
-0.109613 -0.002885 0.512776 -0.277989 -0.497660 -0.821618 108 106 95 255 4
-0.108121 -0.002864 0.509149 -0.300113 -0.500482 -0.812065 111 110 99 255 4
-0.107417 -0.002864 0.509204 -0.300634 -0.502457 -0.810652 109 110 99 255 4
-0.106824 -0.002868 0.509793 -0.295973 -0.508501 -0.808596 113 113 101 255 4
-0.106038 -0.002866 0.509462 -0.294538 -0.513675 -0.805845 112 113 101 255 4
-0.105257 -0.002864 0.509149 -0.295281 -0.515765 -0.804236 111 111 100 255 4
-0.104477 -0.002862 0.508836 -0.291596 -0.519687 -0.803055 110 110 99 255 4
-0.103686 -0.002860 0.508468 -0.285380 -0.520741 -0.804604 110 110 99 255 4
-0.102893 -0.002858 0.508081 -0.277095 -0.522109 -0.806611 116 117 105 255 4
-0.102167 -0.002858 0.508026 -0.264559 -0.528346 -0.806758 130 130 118 255 4
-0.101449 -0.002858 0.508008 -0.254021 -0.526547 -0.811308 130 130 117 255 4
-0.100727 -0.002858 0.507971 -0.242173 -0.529233 -0.813182 126 112 93 255 4
-0.100049 -0.002859 0.508155 -0.231066 -0.530806 -0.815385 123 97 76 255 4
-0.099263 -0.002856 0.507787 -0.213992 -0.524046 -0.824368 125 98 76 255 4
-0.098477 -0.002854 0.507419 -0.200238 -0.519469 -0.830697 127 98 76 255 4
-0.097692 -0.002852 0.507051 -0.184234 -0.515336 -0.836951 127 98 75 255 4
-0.096909 -0.002850 0.506682 -0.162654 -0.500480 -0.850332 129 99 76 255 4
-0.096126 -0.002848 0.506314 -0.138463 -0.495534 -0.857481 129 99 76 255 4
-0.095349 -0.002846 0.505964 -0.123834 -0.490280 -0.862723 128 100 76 255 4
-0.094606 -0.002845 0.505799 -0.110610 -0.486166 -0.866838 129 101 77 255 4
-0.093867 -0.002844 0.505651 -0.098330 -0.480181 -0.871640 129 101 77 255 4
-0.093129 -0.002844 0.505504 -0.086921 -0.475740 -0.875281 129 102 78 255 4
-0.092395 -0.002843 0.505375 -0.073919 -0.470901 -0.879084 130 102 78 255 4
-0.091657 -0.002842 0.505228 -0.062097 -0.468285 -0.881393 130 102 78 255 4
-0.090940 -0.002842 0.505191 -0.052200 -0.466445 -0.883008 130 102 78 255 4
-0.090226 -0.002842 0.505173 -0.042368 -0.462815 -0.885442 131 103 78 255 4
-0.089529 -0.002842 0.505246 -0.033620 -0.460076 -0.887243 131 102 78 255 4
-0.088831 -0.002843 0.505320 -0.026481 -0.458344 -0.888380 132 103 79 255 4
-0.088133 -0.002843 0.505394 -0.017824 -0.453156 -0.891253 132 103 79 255 4
-0.087429 -0.002843 0.505431 -0.008189 -0.445122 -0.895432 133 104 80 255 4
-0.086728 -0.002844 0.505486 -0.000033 -0.440874 -0.897569 132 105 80 255 4
-0.086023 -0.002844 0.505523 0.007898 -0.432929 -0.901393 133 108 82 255 4
-0.085318 -0.002844 0.505559 0.016405 -0.423490 -0.905752 133 107 82 255 4
-0.084617 -0.002844 0.505615 0.019587 -0.421896 -0.906433 133 108 82 255 4
-0.083912 -0.002844 0.505651 0.024364 -0.416318 -0.908893 133 107 82 255 4
-0.083210 -0.002845 0.505707 0.026289 -0.410839 -0.911329 133 107 82 255 4
-0.082507 -0.002845 0.505762 0.026131 -0.407714 -0.912736 133 107 83 255 4
-0.081808 -0.002846 0.505836 0.022282 -0.404382 -0.914319 133 109 84 255 4
-0.081109 -0.002846 0.505909 0.015476 -0.399760 -0.916489 134 110 85 255 4
-0.080409 -0.002846 0.505983 0.009044 -0.394005 -0.919064 134 110 85 255 4
-0.079706 -0.002847 0.506038 -0.000956 -0.389424 -0.921058 133 110 85 255 4
-0.078991 -0.002847 0.506020 -0.011963 -0.384682 -0.922972 134 111 86 255 4
-0.078277 -0.002846 0.506001 -0.023219 -0.375536 -0.926517 134 111 86 255 4
-0.077560 -0.002846 0.505964 -0.038018 -0.373426 -0.926881 134 112 86 255 4
-0.076845 -0.002846 0.505946 -0.050019 -0.371375 -0.927135 134 111 85 255 4
-0.076134 -0.002846 0.505946 -0.065226 -0.368445 -0.927358 135 112 86 255 4
-0.075422 -0.002846 0.505946 -0.078666 -0.368118 -0.926445 135 112 85 255 4
-0.074711 -0.002846 0.505946 -0.091753 -0.364124 -0.926820 136 112 85 255 4
-0.074002 -0.002846 0.505964 -0.101796 -0.358062 -0.928132 136 112 85 255 4
-0.073290 -0.002846 0.505964 -0.114020 -0.354313 -0.928150 137 111 84 255 4
-0.072579 -0.002846 0.505964 -0.123706 -0.352818 -0.927478 137 110 84 255 4
-0.071867 -0.002846 0.505964 -0.132229 -0.348981 -0.927754 137 111 84 255 4
-0.071132 -0.002845 0.505799 -0.141318 -0.345172 -0.927839 136 109 83 255 4
-0.070375 -0.002843 0.505467 -0.145076 -0.335376 -0.930847 136 109 83 255 4
-0.069618 -0.002842 0.505136 -0.146771 -0.329066 -0.932831 136 109 83 255 4
-0.068863 -0.002840 0.504805 -0.145017 -0.326486 -0.934011 136 109 82 255 4
-0.068130 -0.002839 0.504639 -0.142594 -0.321609 -0.936074 137 109 83 255 4
-0.067394 -0.002838 0.504437 -0.139017 -0.317298 -0.938081 137 110 83 255 4
-0.066650 -0.002836 0.504179 -0.132675 -0.312367 -0.940651 137 109 82 255 4
-0.065920 -0.002835 0.504013 -0.124743 -0.311033 -0.942177 137 110 83 255 4
-0.065196 -0.002835 0.503903 -0.114872 -0.306467 -0.944925 136 109 82 255 4
-0.064471 -0.002834 0.503774 -0.102158 -0.304092 -0.947149 136 109 82 255 4
-0.063746 -0.002833 0.503645 -0.087208 -0.301678 -0.949413 137 110 82 255 4
-0.063024 -0.002833 0.503534 -0.070741 -0.299550 -0.951454 136 109 82 255 4
-0.062300 -0.002832 0.503406 -0.053092 -0.297056 -0.953383 137 110 83 255 4
-0.061577 -0.002831 0.503277 -0.033089 -0.293841 -0.955281 135 108 81 255 4
-0.060849 -0.002830 0.503111 -0.012264 -0.290359 -0.956839 135 107 81 255 4
-0.060119 -0.002829 0.502927 0.010918 -0.286878 -0.957905 135 106 81 255 4
-0.059410 -0.002829 0.502909 0.032248 -0.284609 -0.958101 134 106 81 255 4
-0.058709 -0.002829 0.502964 0.055710 -0.283646 -0.957309 136 109 83 255 4
-0.058021 -0.002830 0.503129 0.077214 -0.283094 -0.955979 137 110 85 255 4
