ply
format ascii 1.0
comment Created by labeled_geometry.py
element vertex 655
property float x
property float y
property float z
property float nx
property float ny
property float nz
property uchar red
property uchar green
property uchar blue
property uchar alpha
property uchar label
end_header
0.000611 0.080037 0.434443 -0.135498 -0.179045 -0.974466 110 78 55 255 3
0.001221 0.080002 0.434248 -0.162706 -0.195034 -0.967206 109 78 55 255 3
0.001831 0.079962 0.434032 -0.192748 -0.210167 -0.958477 108 78 55 255 3
0.002440 0.079910 0.433752 -0.217867 -0.223846 -0.949961 107 77 55 255 3
0.003048 0.079854 0.433449 -0.240773 -0.231120 -0.942662 106 77 55 255 3
0.003655 0.079811 0.433212 -0.262889 -0.241571 -0.934095 107 77 55 255 3
0.004262 0.079767 0.432974 -0.284171 -0.247568 -0.926259 108 77 55 255 3
0.004869 0.079723 0.432737 -0.306120 -0.253431 -0.917640 109 77 55 255 3
0.005474 0.079671 0.432456 -0.324920 -0.252820 -0.911323 109 78 56 255 3
0.006078 0.079620 0.432175 -0.340385 -0.254715 -0.905129 108 76 55 255 3
0.006682 0.079572 0.431916 -0.352925 -0.261451 -0.898381 109 77 56 255 3
0.007285 0.079528 0.431678 -0.367313 -0.267260 -0.890872 109 77 56 255 3
0.007887 0.079472 0.431376 -0.373703 -0.277589 -0.885037 109 77 56 255 3
0.008486 0.079409 0.431030 -0.379508 -0.274769 -0.883445 109 77 56 255 3
0.009085 0.079345 0.430685 -0.387210 -0.277236 -0.879323 109 78 57 255 3
0.009683 0.079281 0.430339 -0.391480 -0.285618 -0.874738 108 78 57 255 3
0.010281 0.079226 0.430037 -0.393715 -0.290941 -0.871976 109 79 58 255 3
0.010880 0.079182 0.429799 -0.393846 -0.296102 -0.870177 109 79 58 255 3
0.011478 0.079138 0.429562 -0.393885 -0.297073 -0.869829 110 80 59 255 3
0.012075 0.079090 0.429303 -0.392941 -0.294937 -0.870982 111 80 59 255 3
0.012671 0.079043 0.429043 -0.389306 -0.299802 -0.870954 113 82 60 255 3
0.013266 0.078995 0.428784 -0.388419 -0.300838 -0.870992 112 82 60 255 3
0.013863 0.078959 0.428590 -0.384752 -0.303344 -0.871750 112 82 61 255 3
0.014459 0.078919 0.428374 -0.384767 -0.294735 -0.874692 112 82 61 255 3
0.015053 0.078880 0.428158 -0.381337 -0.294275 -0.876347 113 82 61 255 3
0.015647 0.078836 0.427920 -0.381067 -0.296532 -0.875704 114 83 62 255 3
0.016240 0.078796 0.427704 -0.378730 -0.303571 -0.874304 115 84 62 255 3
0.016833 0.078756 0.427488 -0.380657 -0.305696 -0.872725 115 84 62 255 3
0.017426 0.078716 0.427273 -0.380956 -0.306572 -0.872288 116 85 63 255 3
0.018018 0.078677 0.427057 -0.380107 -0.310074 -0.871420 117 86 64 255 3
0.018609 0.078637 0.426841 -0.380421 -0.315300 -0.869405 115 85 64 255 3
0.019199 0.078597 0.426625 -0.379570 -0.322469 -0.867145 116 86 65 255 3
0.019788 0.078553 0.426387 -0.383108 -0.317205 -0.867530 117 87 66 255 3
0.020379 0.078518 0.426193 -0.385389 -0.324899 -0.863665 116 85 65 255 3
0.020972 0.078494 0.426063 -0.386435 -0.330505 -0.861066 117 85 65 255 3
0.021563 0.078466 0.425912 -0.387171 -0.341035 -0.856618 117 84 64 255 3
0.022155 0.078442 0.425782 -0.390538 -0.347741 -0.852383 117 84 64 255 3
0.022746 0.078414 0.425631 -0.391450 -0.357068 -0.848097 116 83 63 255 3
0.023338 0.078390 0.425502 -0.390911 -0.366565 -0.844286 114 83 63 255 3
0.023927 0.078362 0.425350 -0.392574 -0.371056 -0.841548 113 82 63 255 3
0.024519 0.078342 0.425242 -0.392168 -0.373911 -0.840473 112 81 62 255 3
0.025111 0.078323 0.425134 -0.389338 -0.382429 -0.837952 111 80 61 255 3
0.025701 0.078299 0.425005 -0.385819 -0.391455 -0.835408 110 77 58 255 3
0.026297 0.078295 0.424983 -0.376643 -0.401106 -0.835017 110 75 56 255 3
0.026898 0.078303 0.425026 -0.368689 -0.409880 -0.834306 110 73 55 255 3
0.027498 0.078311 0.425070 -0.362987 -0.412533 -0.835498 110 72 54 255 3
0.028102 0.078327 0.425156 -0.351805 -0.420653 -0.836232 109 72 52 255 3
0.028704 0.078338 0.425221 -0.347854 -0.420542 -0.837939 110 73 51 255 3
0.029314 0.078370 0.425394 -0.340770 -0.421479 -0.840376 109 73 52 255 3
0.029935 0.078430 0.425718 -0.332075 -0.424026 -0.842572 107 71 53 255 3
0.030560 0.078498 0.426085 -0.328999 -0.424132 -0.843725 107 70 51 255 3
0.031197 0.078593 0.426603 -0.324236 -0.425053 -0.845104 104 72 54 255 3
0.031879 0.078796 0.427704 -0.325284 -0.422153 -0.846154 91 77 60 255 3
-0.067622 0.078299 0.421787 0.364979 -0.291750 -0.884122 85 70 56 255 3
-0.066840 0.078079 0.420599 0.361122 -0.289995 -0.886281 96 63 49 255 3
-0.066187 0.078006 0.420210 0.360590 -0.292204 -0.885772 103 63 49 255 3
-0.065515 0.077910 0.419692 0.360316 -0.294832 -0.885012 105 65 50 255 3
-0.064892 0.077870 0.419476 0.358740 -0.296709 -0.885025 106 66 52 255 3
-0.064275 0.077838 0.419303 0.359316 -0.300194 -0.883615 107 69 53 255 3
-0.063643 0.077786 0.419023 0.358936 -0.303366 -0.882686 109 71 54 255 3
-0.063028 0.077754 0.418850 0.359246 -0.306978 -0.881310 109 74 56 255 3
-0.062442 0.077758 0.418871 0.358720 -0.309880 -0.880508 109 75 56 255 3
-0.061856 0.077762 0.418893 0.363803 -0.314299 -0.876849 113 79 59 255 3
-0.061254 0.077746 0.418807 0.365059 -0.318653 -0.874753 115 81 60 255 3
-0.060668 0.077750 0.418828 0.365743 -0.319625 -0.874112 117 84 62 255 3
-0.060123 0.077806 0.419131 0.368351 -0.327708 -0.870014 120 87 64 255 3
-0.059582 0.077870 0.419476 0.376272 -0.329817 -0.865818 123 88 65 255 3
-0.059044 0.077938 0.419843 0.379254 -0.335056 -0.862499 123 89 65 255 3
-0.058493 0.077990 0.420124 0.392181 -0.334967 -0.856733 122 89 66 255 3
-0.057941 0.078042 0.420405 0.405269 -0.336774 -0.849906 122 90 67 255 3
-0.057408 0.078123 0.420837 0.419482 -0.337236 -0.842797 122 91 68 255 3
-0.056863 0.078187 0.421182 0.433256 -0.331505 -0.838089 122 92 68 255 3
-0.056305 0.078235 0.421441 0.446555 -0.324078 -0.834004 121 91 68 255 3
-0.055753 0.078291 0.421744 0.460912 -0.316857 -0.828952 121 92 68 255 3
-0.055202 0.078351 0.422068 0.469684 -0.309667 -0.826743 121 92 68 255 3
-0.054650 0.078411 0.422392 0.476607 -0.303205 -0.825174 119 91 67 255 3
-0.054089 0.078459 0.422651 0.479101 -0.294277 -0.826960 119 91 67 255 3
-0.053531 0.078511 0.422932 0.480272 -0.285690 -0.829289 120 92 68 255 3
-0.052974 0.078568 0.423234 0.479476 -0.279193 -0.831958 120 92 69 255 3
-0.052419 0.078628 0.423558 0.477178 -0.271250 -0.835897 119 90 67 255 3
-0.051860 0.078684 0.423860 0.473682 -0.262801 -0.840572 117 89 66 255 3
-0.051300 0.078740 0.424163 0.469121 -0.251515 -0.846561 117 88 66 255 3
-0.050740 0.078796 0.424465 0.463569 -0.246113 -0.851194 117 89 66 255 3
-0.050179 0.078852 0.424767 0.458647 -0.238662 -0.855969 115 88 65 255 3
-0.049617 0.078908 0.425070 0.450801 -0.232789 -0.861735 114 86 64 255 3
-0.049054 0.078965 0.425372 0.447256 -0.223528 -0.866024 114 85 63 255 3
-0.048487 0.079017 0.425653 0.444073 -0.214583 -0.869916 114 85 63 255 3
-0.047920 0.079069 0.425934 0.440210 -0.208237 -0.873414 114 84 62 255 3
-0.047353 0.079121 0.426214 0.438055 -0.201944 -0.875972 112 82 60 255 3
-0.046784 0.079173 0.426495 0.438339 -0.195274 -0.877341 113 82 61 255 3
-0.046215 0.079225 0.426776 0.437836 -0.190380 -0.878667 113 82 61 255 3
-0.045644 0.079277 0.427057 0.435990 -0.185195 -0.880690 111 81 60 255 3
-0.045074 0.079329 0.427337 0.438688 -0.176701 -0.881096 110 80 59 255 3
-0.044502 0.079381 0.427618 0.440993 -0.168937 -0.881468 109 79 58 255 3
-0.043929 0.079434 0.427899 0.443715 -0.164483 -0.880944 107 78 57 255 3
-0.043354 0.079482 0.428158 0.445275 -0.166260 -0.879822 107 78 57 255 3
-0.042780 0.079534 0.428439 0.446833 -0.162321 -0.879768 106 76 56 255 3
-0.042205 0.079586 0.428720 0.448302 -0.161356 -0.879198 106 77 56 255 3
-0.041629 0.079638 0.429000 0.451276 -0.161136 -0.877716 105 76 56 255 3
-0.041055 0.079694 0.429303 0.453347 -0.161359 -0.876607 105 76 56 255 3
-0.040479 0.079750 0.429605 0.454062 -0.156082 -0.877192 104 75 55 255 3
-0.039903 0.079806 0.429907 0.452577 -0.153829 -0.878357 104 76 55 255 3
-0.039328 0.079867 0.430231 0.448025 -0.148617 -0.881582 104 76 54 255 3
-0.038758 0.079939 0.430620 0.441046 -0.146619 -0.885427 105 76 55 255 3
-0.038187 0.080011 0.431009 0.432696 -0.147335 -0.889419 104 76 54 255 3
-0.037615 0.080083 0.431398 0.422589 -0.141810 -0.895158 104 76 54 255 3
-0.037038 0.080147 0.431743 0.411403 -0.142595 -0.900230 104 75 53 255 3
-0.036456 0.080203 0.432045 0.395814 -0.141403 -0.907379 105 75 53 255 3
-0.035874 0.080259 0.432348 0.379162 -0.142733 -0.914256 107 75 52 255 3
-0.035288 0.080312 0.432629 0.358256 -0.141006 -0.922914 108 75 53 255 3
-0.034701 0.080360 0.432888 0.338213 -0.136425 -0.931128 108 75 52 255 3
-0.034116 0.080416 0.433190 0.313214 -0.137973 -0.939606 107 74 52 255 3
-0.033532 0.080476 0.433514 0.286388 -0.142489 -0.947459 107 75 52 255 3
-0.032943 0.080528 0.433795 0.261165 -0.153832 -0.952958 106 75 53 255 3
-0.032354 0.080580 0.434076 0.229422 -0.152009 -0.961384 106 77 54 255 3
-0.031766 0.080636 0.434378 0.201144 -0.145521 -0.968692 106 77 55 255 3
-0.031180 0.080701 0.434723 0.170375 -0.138130 -0.975650 105 77 55 255 3
-0.030582 0.080737 0.434918 0.148389 -0.124482 -0.981063 104 76 54 255 3
-0.029985 0.080777 0.435134 0.118290 -0.111666 -0.986680 103 75 53 255 3
-0.029395 0.080837 0.435458 0.089025 -0.102651 -0.990726 102 73 51 255 3
-0.028801 0.080889 0.435739 0.056470 -0.087712 -0.994544 96 68 46 255 3
-0.028211 0.080953 0.436084 0.027847 -0.075142 -0.996784 92 63 41 255 3
-0.027620 0.081017 0.436430 0.001166 -0.062025 -0.998074 88 59 39 255 3
-0.026928 0.080785 0.435177 -0.023159 -0.017396 -0.999580 79 59 42 255 3
-0.025648 0.080608 0.434227 -0.062987 0.033252 -0.997460 101 100 89 255 4
-0.025037 0.080608 0.434227 -0.080134 0.048882 -0.995585 100 100 90 255 4
-0.024474 0.080765 0.435069 -0.098626 0.054171 -0.993649 99 98 87 255 4
-0.023796 0.080540 0.433860 -0.107209 0.074658 -0.991429 96 96 85 255 4
-0.023185 0.080536 0.433838 -0.116331 0.083705 -0.989677 94 93 82 255 4
-0.022589 0.080588 0.434119 -0.123766 0.089740 -0.988245 95 94 83 255 4
-0.021993 0.080640 0.434399 -0.130349 0.094621 -0.986943 94 93 83 255 4
-0.021387 0.080660 0.434507 -0.129244 0.105323 -0.986003 94 93 82 255 4
-0.020752 0.080568 0.434011 -0.127834 0.111164 -0.985546 93 91 81 255 4
-0.020143 0.080572 0.434032 -0.123052 0.119694 -0.985156 92 90 80 255 4
-0.019537 0.080588 0.434119 -0.116996 0.126542 -0.985038 93 92 81 255 4
-0.018930 0.080604 0.434205 -0.108341 0.132202 -0.985284 95 94 82 255 4
-0.018305 0.080544 0.433881 -0.095340 0.132675 -0.986564 99 98 86 255 4
-0.017666 0.080412 0.433168 -0.076053 0.121915 -0.989623 95 93 82 255 4
-0.017051 0.080384 0.433017 -0.055193 0.116466 -0.991660 93 91 80 255 4
-0.016426 0.080304 0.432585 -0.032675 0.111211 -0.993259 94 93 82 255 4
-0.015812 0.080276 0.432434 -0.008852 0.110484 -0.993839 94 93 81 255 4
-0.015219 0.080356 0.432866 0.013555 0.120542 -0.992616 92 91 79 255 4
-0.014616 0.080388 0.433039 0.031659 0.124911 -0.991663 91 89 79 255 4
-0.014013 0.080424 0.433233 0.050662 0.130365 -0.990171 91 90 79 255 4
-0.013421 0.080524 0.433773 0.071050 0.134093 -0.988418 94 93 82 255 4
-0.012821 0.080588 0.434119 0.090435 0.138869 -0.986173 93 92 81 255 4
-0.012204 0.080548 0.433903 0.104120 0.135812 -0.985248 92 91 80 255 4
-0.011593 0.080540 0.433860 0.115001 0.133524 -0.984351 93 92 81 255 4
-0.010992 0.080608 0.434227 0.124092 0.133587 -0.983237 97 96 85 255 4
-0.010384 0.080632 0.434356 0.128506 0.130939 -0.983027 97 96 85 255 4
-0.009767 0.080576 0.434054 0.130333 0.122499 -0.983874 103 102 90 255 4
-0.009150 0.080520 0.433752 0.132048 0.111197 -0.984987 102 102 90 255 4
-0.008539 0.080508 0.433687 0.131115 0.097737 -0.986538 102 102 91 255 4
-0.007930 0.080520 0.433752 0.131406 0.085752 -0.987613 103 103 91 255 4
-0.007321 0.080528 0.433795 0.126772 0.072589 -0.989272 105 105 93 255 4
-0.006719 0.080632 0.434356 0.123480 0.055826 -0.990776 106 105 94 255 4
-0.006105 0.080592 0.434140 0.113731 0.040113 -0.992701 105 105 94 255 4
-0.005492 0.080552 0.433924 0.102814 0.026122 -0.994358 105 102 90 255 4
-0.004886 0.080616 0.434270 0.087100 0.007276 -0.996173 98 87 71 255 4
-0.004279 0.080684 0.434637 0.067696 -0.016243 -0.997574 87 65 47 255 3
-0.003678 0.080925 0.435933 0.057748 -0.050564 -0.997050 88 60 41 255 3
-0.003065 0.080909 0.435846 0.034645 -0.071215 -0.996859 96 66 45 255 3
-0.002451 0.080869 0.435631 0.007335 -0.093043 -0.995635 103 70 49 255 3
-0.001837 0.080821 0.435371 -0.021655 -0.104451 -0.994294 105 72 50 255 3
-0.001224 0.080773 0.435112 -0.050029 -0.120243 -0.991483 107 74 51 255 3
-0.000612 0.080729 0.434875 -0.081948 -0.132087 -0.987845 108 75 52 255 3
0.000000 0.080680 0.434615 -0.113242 -0.146012 -0.982780 109 76 53 255 3
0.000611 0.080644 0.434421 -0.143631 -0.160467 -0.976535 108 76 53 255 3
0.001221 0.080608 0.434227 -0.171784 -0.177417 -0.969027 107 77 54 255 3
0.001831 0.080560 0.433968 -0.196522 -0.186534 -0.962593 106 77 54 255 3
0.002440 0.080508 0.433687 -0.224183 -0.199603 -0.953887 106 77 54 255 3
0.003048 0.080456 0.433406 -0.248205 -0.211335 -0.945374 105 77 55 255 3
0.003655 0.080404 0.433125 -0.271331 -0.220115 -0.936979 105 76 54 255 3
0.004262 0.080360 0.432888 -0.292397 -0.227992 -0.928722 107 77 55 255 3
0.004867 0.080312 0.432629 -0.311444 -0.225062 -0.923228 108 78 55 255 3
0.005472 0.080259 0.432348 -0.328236 -0.235748 -0.914704 109 78 55 255 3
0.006077 0.080211 0.432089 -0.345189 -0.241315 -0.906979 108 76 54 255 3
0.006680 0.080159 0.431808 -0.359301 -0.248306 -0.899581 108 76 55 255 3
0.007283 0.080111 0.431549 -0.370691 -0.243691 -0.896216 108 76 55 255 3
0.007883 0.080047 0.431203 -0.380486 -0.246825 -0.891239 108 77 56 255 3
0.008483 0.079983 0.430858 -0.386405 -0.252250 -0.887165 108 77 56 255 3
0.009082 0.079919 0.430512 -0.392097 -0.260001 -0.882417 107 77 56 255 3
0.009679 0.079855 0.430167 -0.397459 -0.268027 -0.877603 107 77 56 255 3
0.010278 0.079806 0.429907 -0.398520 -0.275646 -0.874758 108 77 56 255 3
0.010876 0.079758 0.429648 -0.396962 -0.279514 -0.874239 109 78 57 255 3
0.011473 0.079710 0.429389 -0.397229 -0.279867 -0.874004 110 79 57 255 3
0.012070 0.079662 0.429130 -0.394945 -0.282886 -0.874067 111 81 59 255 3
0.012666 0.079614 0.428871 -0.393283 -0.280426 -0.875608 112 81 59 255 3
0.013262 0.079570 0.428633 -0.388848 -0.281729 -0.877169 112 81 59 255 3
0.013857 0.079530 0.428417 -0.388439 -0.276974 -0.878863 113 82 60 255 3
0.014452 0.079486 0.428180 -0.386247 -0.282560 -0.878051 112 81 59 255 3
0.015047 0.079446 0.427964 -0.385520 -0.286227 -0.877182 113 82 60 255 3
0.015640 0.079402 0.427726 -0.382821 -0.293140 -0.876081 113 82 60 255 3
0.016233 0.079361 0.427510 -0.382129 -0.294070 -0.876071 113 82 61 255 3
0.016826 0.079321 0.427294 -0.382478 -0.294610 -0.875737 114 83 61 255 3
0.017418 0.079281 0.427078 -0.383680 -0.297256 -0.874316 114 84 62 255 3
0.018009 0.079241 0.426862 -0.385077 -0.300896 -0.872455 115 85 63 255 3
0.018599 0.079197 0.426625 -0.384977 -0.298626 -0.873278 115 85 63 255 3
0.019190 0.079157 0.426409 -0.384965 -0.306692 -0.870484 116 86 64 255 3
0.019779 0.079117 0.426193 -0.385671 -0.315222 -0.867118 116 86 65 255 3
0.020367 0.079073 0.425955 -0.389365 -0.323197 -0.862519 116 85 64 255 3
0.020955 0.079029 0.425718 -0.392658 -0.330000 -0.858440 116 85 64 255 3
0.021541 0.078985 0.425480 -0.393784 -0.338625 -0.854557 116 84 64 255 3
0.022133 0.078961 0.425350 -0.395409 -0.343153 -0.851997 117 85 64 255 3
0.022723 0.078932 0.425199 -0.396630 -0.349846 -0.848700 117 85 64 255 3
0.023314 0.078908 0.425070 -0.396792 -0.357733 -0.845330 116 84 64 255 3
0.023903 0.078880 0.424918 -0.398053 -0.365436 -0.841433 114 83 63 255 3
0.024493 0.078856 0.424789 -0.397005 -0.374215 -0.838063 114 82 63 255 3
0.025083 0.078832 0.424659 -0.392206 -0.382219 -0.836710 114 82 62 255 3
0.025674 0.078812 0.424551 -0.387107 -0.390494 -0.835262 114 80 60 255 3
0.026263 0.078788 0.424422 -0.381226 -0.394300 -0.836178 113 78 58 255 3
0.026854 0.078772 0.424335 -0.372742 -0.402554 -0.836070 112 76 56 255 3
0.027452 0.078776 0.424357 -0.360504 -0.410451 -0.837596 111 74 55 255 3
0.028053 0.078788 0.424422 -0.354879 -0.412996 -0.838746 109 72 54 255 3
0.028655 0.078800 0.424487 -0.346962 -0.416001 -0.840572 108 72 53 255 3
0.029256 0.078812 0.424551 -0.334944 -0.422064 -0.842422 108 72 52 255 3
0.029858 0.078824 0.424616 -0.330180 -0.419374 -0.845640 108 73 53 255 3
0.030475 0.078876 0.424897 -0.324585 -0.419358 -0.847811 106 70 51 255 3
0.031101 0.078948 0.425286 -0.322894 -0.416881 -0.849676 106 68 52 255 3
0.031730 0.079025 0.425696 -0.314714 -0.418446 -0.851973 105 71 54 255 3
0.032400 0.079201 0.426646 -0.320990 -0.410728 -0.853386 98 77 58 255 3
-0.068107 0.078767 0.421117 0.361767 -0.281100 -0.888880 90 70 55 255 3
-0.067366 0.078593 0.420189 0.360915 -0.281570 -0.889077 93 62 48 255 3
-0.066689 0.078492 0.419649 0.359870 -0.283720 -0.888818 100 62 46 255 3
-0.066034 0.078416 0.419238 0.358882 -0.285630 -0.888605 104 65 49 255 3
-0.065407 0.078371 0.419001 0.360086 -0.286393 -0.887872 105 68 52 255 3
-0.064798 0.078347 0.418871 0.359820 -0.290524 -0.886637 106 70 55 255 3
-0.064176 0.078306 0.418655 0.359212 -0.289431 -0.887241 108 72 56 255 3
-0.063554 0.078266 0.418439 0.358543 -0.293903 -0.886040 110 75 57 255 3
-0.062940 0.078234 0.418267 0.359216 -0.293452 -0.885918 112 78 59 255 3
-0.062345 0.078226 0.418223 0.359597 -0.298933 -0.883928 113 80 60 255 3
-0.061757 0.078226 0.418223 0.359372 -0.301339 -0.883202 115 82 61 255 3
-0.061153 0.078205 0.418115 0.364136 -0.303239 -0.880597 117 86 63 255 3
-0.060587 0.078234 0.418267 0.365258 -0.307129 -0.878782 118 87 64 255 3
-0.060064 0.078319 0.418720 0.367370 -0.315528 -0.874918 121 88 65 255 3
-0.059536 0.078399 0.419152 0.374529 -0.317744 -0.871072 122 89 65 255 3
-0.058989 0.078456 0.419454 0.380083 -0.325196 -0.865901 123 89 66 255 3
-0.058439 0.078508 0.419735 0.392387 -0.328225 -0.859244 122 89 66 255 3
-0.057899 0.078577 0.420102 0.406284 -0.326244 -0.853521 122 90 66 255 3
-0.057364 0.078654 0.420513 0.422202 -0.324778 -0.846324 121 90 67 255 3
-0.056828 0.078731 0.420923 0.438779 -0.320924 -0.839333 120 91 67 255 3
-0.056274 0.078783 0.421204 0.451768 -0.316618 -0.834061 120 91 68 255 3
-0.055724 0.078844 0.421528 0.463553 -0.311362 -0.829562 120 91 67 255 3
-0.055177 0.078908 0.421873 0.475274 -0.299888 -0.827153 120 92 68 255 3
-0.054634 0.078981 0.422262 0.482353 -0.293458 -0.825359 119 91 68 255 3
-0.054084 0.079046 0.422608 0.485951 -0.286821 -0.825582 119 91 67 255 3
-0.053528 0.079102 0.422910 0.485691 -0.281405 -0.827597 120 92 68 255 3
-0.052974 0.079163 0.423234 0.484317 -0.271506 -0.831698 119 91 68 255 3
-0.052416 0.079219 0.423536 0.483479 -0.261028 -0.835531 118 89 67 255 3
-0.051860 0.079280 0.423860 0.477587 -0.257225 -0.840087 116 88 65 255 3
-0.051300 0.079337 0.424163 0.473603 -0.248557 -0.844937 116 88 65 255 3
-0.050740 0.079393 0.424465 0.468783 -0.238514 -0.850502 114 87 64 255 3
-0.050176 0.079446 0.424746 0.463696 -0.229043 -0.855877 113 85 63 255 3
-0.049614 0.079502 0.425048 0.456786 -0.224151 -0.860873 111 83 61 255 3
-0.049051 0.079559 0.425350 0.451705 -0.217850 -0.865161 112 83 61 255 3
-0.048487 0.079615 0.425653 0.447685 -0.209043 -0.869413 111 82 61 255 3
-0.047920 0.079668 0.425934 0.446111 -0.197085 -0.873008 112 82 60 255 3
-0.047353 0.079720 0.426214 0.442659 -0.185853 -0.877218 112 81 59 255 3
-0.046782 0.079769 0.426473 0.440977 -0.180183 -0.879246 111 80 59 255 3
-0.046212 0.079821 0.426754 0.440833 -0.173590 -0.880643 111 80 59 255 3
-0.045642 0.079874 0.427035 0.442128 -0.165608 -0.881531 110 79 59 255 3
-0.045074 0.079930 0.427337 0.443454 -0.158740 -0.882128 108 78 57 255 3
-0.044506 0.079991 0.427661 0.443791 -0.155583 -0.882521 106 77 57 255 3
-0.043936 0.080047 0.427964 0.445352 -0.150734 -0.882576 106 77 56 255 3
-0.043365 0.080104 0.428266 0.446731 -0.147491 -0.882427 105 76 56 255 3
-0.042793 0.080161 0.428568 0.448659 -0.141349 -0.882454 104 75 55 255 3
-0.042220 0.080217 0.428871 0.451169 -0.141487 -0.881151 103 75 55 255 3
-0.041642 0.080266 0.429130 0.452908 -0.141973 -0.880181 103 75 55 255 3
-0.041065 0.080318 0.429411 0.454909 -0.143065 -0.878971 102 74 54 255 3
-0.040487 0.080371 0.429691 0.455026 -0.137392 -0.879815 102 75 54 255 3
-0.039909 0.080423 0.429972 0.453558 -0.135172 -0.880916 102 74 53 255 3
-0.039332 0.080480 0.430274 0.446210 -0.130644 -0.885341 103 74 53 255 3
-0.038762 0.080552 0.430663 0.441066 -0.130366 -0.887956 102 74 53 255 3
-0.038193 0.080629 0.431074 0.434053 -0.124456 -0.892249 102 74 52 255 3
-0.037620 0.080702 0.431462 0.424203 -0.123209 -0.897147 102 74 52 255 3
-0.037047 0.080775 0.431851 0.410933 -0.126961 -0.902782 102 73 52 255 3
-0.036465 0.080831 0.432153 0.395986 -0.128811 -0.909177 103 73 51 255 3
-0.035883 0.080888 0.432456 0.378456 -0.131565 -0.916221 104 72 51 255 3
-0.035299 0.080944 0.432758 0.360624 -0.129658 -0.923655 105 73 51 255 3
-0.034713 0.080997 0.433039 0.337890 -0.131188 -0.931998 105 73 51 255 3
-0.034128 0.081053 0.433341 0.311125 -0.134288 -0.940834 106 74 52 255 3
-0.033543 0.081114 0.433665 0.286467 -0.134336 -0.948625 104 74 52 255 3
-0.032958 0.081175 0.433989 0.259286 -0.135385 -0.956264 103 74 52 255 3
-0.032370 0.081231 0.434292 0.232473 -0.137524 -0.962831 102 75 54 255 3
-0.031780 0.081284 0.434572 0.203456 -0.132726 -0.970046 103 76 54 255 3
-0.031195 0.081352 0.434939 0.175015 -0.128598 -0.976131 103 76 54 255 3
-0.030611 0.081425 0.435328 0.148166 -0.121371 -0.981487 103 75 54 255 3
-0.030015 0.081469 0.435566 0.118963 -0.108064 -0.987000 102 73 52 255 3
-0.029416 0.081506 0.435760 0.089223 -0.092203 -0.991735 100 71 49 255 3
-0.028816 0.081542 0.435954 0.061956 -0.072161 -0.995467 96 67 45 255 3
-0.028214 0.081574 0.436127 0.033464 -0.056068 -0.997866 92 63 42 255 3
-0.027621 0.081635 0.436451 0.006434 -0.044596 -0.998984 89 60 39 255 3
-0.027030 0.081704 0.436818 -0.019508 -0.032945 -0.999267 81 56 37 255 3
-0.026319 0.081405 0.435220 -0.038552 0.017724 -0.999099 78 62 47 255 3
-0.025674 0.081300 0.434659 -0.055442 0.041592 -0.997595 90 84 72 255 4
-0.025036 0.081215 0.434205 -0.071688 0.057811 -0.995750 96 95 86 255 4
-0.024432 0.081235 0.434313 -0.088390 0.070248 -0.993606 98 98 87 255 4
-0.023794 0.081142 0.433816 -0.098565 0.086341 -0.991378 98 97 86 255 4
-0.023181 0.081134 0.433773 -0.109036 0.096110 -0.989381 96 95 84 255 4
-0.022579 0.081162 0.433924 -0.118281 0.099732 -0.987959 95 94 83 255 4
-0.021983 0.081215 0.434205 -0.122575 0.110222 -0.986320 94 93 82 255 4
-0.021387 0.081271 0.434507 -0.124999 0.120966 -0.984755 93 93 82 255 4
-0.020770 0.081247 0.434378 -0.123388 0.128041 -0.984064 92 91 80 255 4
-0.020148 0.081203 0.434140 -0.118887 0.135648 -0.983598 92 91 80 255 4
-0.019541 0.081219 0.434227 -0.113511 0.141950 -0.983344 93 92 81 255 4
-0.018935 0.081235 0.434313 -0.105085 0.147033 -0.983534 94 92 81 255 4
-0.018326 0.081247 0.434378 -0.094127 0.153814 -0.983606 94 93 81 255 4
-0.017698 0.081166 0.433946 -0.075207 0.157178 -0.984703 93 91 80 255 4
-0.017060 0.081033 0.433233 -0.057550 0.144128 -0.987884 91 89 78 255 4
-0.016440 0.080981 0.432953 -0.032775 0.140012 -0.989607 91 90 79 255 4
-0.015825 0.080952 0.432801 -0.007360 0.136338 -0.990635 91 90 79 255 4
-0.015226 0.081005 0.433082 0.014957 0.139075 -0.990169 92 90 80 255 4
-0.014629 0.081069 0.433428 0.036676 0.148575 -0.988221 92 91 80 255 4
-0.014036 0.081166 0.433946 0.054372 0.162428 -0.985221 91 90 79 255 4
-0.013437 0.081235 0.434313 0.071541 0.166802 -0.983392 90 89 79 255 4
-0.012820 0.081191 0.434076 0.086008 0.164344 -0.982646 91 90 80 255 4
-0.012205 0.081162 0.433924 0.100215 0.155879 -0.982679 94 93 82 255 4
-0.011604 0.081227 0.434270 0.109629 0.154784 -0.981847 99 98 86 255 4
-0.010995 0.081239 0.434335 0.115056 0.150668 -0.981866 103 101 90 255 4
-0.010377 0.081183 0.434032 0.118886 0.144880 -0.982281 103 101 90 255 4
-0.009760 0.081126 0.433730 0.121450 0.137678 -0.983003 103 102 91 255 4
-0.009147 0.081102 0.433600 0.120706 0.131094 -0.983994 100 100 89 255 4
-0.008538 0.081110 0.433644 0.120738 0.115824 -0.985904 100 100 89 255 4
-0.007954 0.081372 0.435047 0.119866 0.101255 -0.987613 101 100 90 255 4
-0.007329 0.081227 0.434270 0.113248 0.087629 -0.989695 101 100 89 255 4
-0.006715 0.081191 0.434076 0.106042 0.070955 -0.991827 103 102 91 255 4
-0.006104 0.081179 0.434011 0.098217 0.058536 -0.993442 105 101 90 255 4
-0.005498 0.081247 0.434378 0.088978 0.038956 -0.995271 99 85 71 255 4
-0.004891 0.081312 0.434723 0.079886 0.016575 -0.996666 90 67 49 255 3
-0.004295 0.081607 0.436300 0.061090 -0.023701 -0.997851 90 62 41 255 3
-0.003681 0.081587 0.436192 0.040587 -0.045670 -0.998132 96 65 43 255 3
-0.003065 0.081538 0.435933 0.019340 -0.059524 -0.998040 101 70 48 255 3
-0.002451 0.081486 0.435652 -0.002936 -0.078718 -0.996893 104 72 50 255 3
-0.001837 0.081437 0.435393 -0.032019 -0.097942 -0.994677 103 72 49 255 3
-0.001224 0.081393 0.435155 -0.056023 -0.113259 -0.991985 106 74 51 255 3
-0.000612 0.081344 0.434896 -0.083305 -0.127951 -0.988276 107 74 51 255 3
0.000000 0.081300 0.434659 -0.113554 -0.138345 -0.983853 107 75 52 255 3
0.000611 0.081251 0.434399 -0.147703 -0.144047 -0.978486 107 76 52 255 3
0.001221 0.081215 0.434205 -0.178294 -0.160034 -0.970876 106 76 52 255 3
0.001831 0.081162 0.433924 -0.204720 -0.170985 -0.963771 104 75 51 255 3
0.002439 0.081110 0.433644 -0.230978 -0.179950 -0.956173 104 76 53 255 3
0.003047 0.081057 0.433363 -0.257690 -0.188526 -0.947657 104 76 53 255 3
0.003654 0.081005 0.433082 -0.281314 -0.189917 -0.940635 105 77 54 255 3
0.004260 0.080948 0.432780 -0.302033 -0.198140 -0.932479 106 77 54 255 3
0.004866 0.080900 0.432521 -0.320735 -0.204035 -0.924932 106 77 53 255 3
0.005471 0.080855 0.432283 -0.338162 -0.210293 -0.917291 108 77 54 255 3
0.006076 0.080807 0.432024 -0.351778 -0.218102 -0.910321 108 77 55 255 3
0.006679 0.080758 0.431765 -0.364010 -0.221105 -0.904770 107 77 54 255 3
0.007281 0.080702 0.431462 -0.373607 -0.224082 -0.900114 107 77 55 255 3
0.007882 0.080637 0.431117 -0.382330 -0.230464 -0.894824 106 76 54 255 3
0.008481 0.080573 0.430771 -0.389460 -0.241273 -0.888880 107 77 55 255 3
0.009080 0.080508 0.430426 -0.396928 -0.245261 -0.884474 106 76 55 255 3
0.009677 0.080443 0.430080 -0.401353 -0.246711 -0.882071 107 77 55 255 3
0.010276 0.080391 0.429799 -0.401254 -0.256479 -0.879326 108 77 55 255 3
0.010874 0.080346 0.429562 -0.403780 -0.257870 -0.877761 110 78 56 255 3
0.011471 0.080298 0.429303 -0.400133 -0.262918 -0.877934 110 79 56 255 3
0.012068 0.080254 0.429065 -0.396447 -0.264167 -0.879230 111 79 57 255 3
0.012664 0.080205 0.428806 -0.392925 -0.261655 -0.881559 111 79 57 255 3
0.013259 0.080157 0.428547 -0.391805 -0.265720 -0.880842 111 80 58 255 3
0.013853 0.080108 0.428288 -0.389911 -0.270139 -0.880338 112 81 58 255 3
0.014446 0.080056 0.428007 -0.387249 -0.276781 -0.879449 113 82 59 255 3
0.015040 0.080011 0.427769 -0.388755 -0.274683 -0.879442 114 82 59 255 3
0.015633 0.079967 0.427532 -0.389038 -0.274650 -0.879327 113 81 58 255 3
0.016226 0.079926 0.427316 -0.388032 -0.276418 -0.879218 113 82 59 255 3
0.016818 0.079886 0.427100 -0.384822 -0.282275 -0.878768 113 82 60 255 3
0.017409 0.079841 0.426862 -0.387694 -0.281041 -0.877900 113 82 61 255 3
0.018000 0.079801 0.426646 -0.388439 -0.286967 -0.875651 113 83 62 255 3
0.018591 0.079761 0.426430 -0.391363 -0.290970 -0.873024 113 84 62 255 3
0.019180 0.079716 0.426193 -0.389727 -0.303470 -0.869493 114 84 63 255 3
0.019769 0.079676 0.425977 -0.393723 -0.306504 -0.866624 114 84 62 255 3
0.020357 0.079631 0.425739 -0.393849 -0.317410 -0.862632 115 84 62 255 3
0.020944 0.079587 0.425502 -0.395349 -0.323227 -0.859781 117 85 64 255 3
0.021530 0.079543 0.425264 -0.400507 -0.326063 -0.856316 117 85 64 255 3
0.022116 0.079498 0.425026 -0.401815 -0.339158 -0.850598 116 85 63 255 3
0.022701 0.079454 0.424789 -0.403949 -0.348215 -0.845914 116 85 64 255 3
0.023289 0.079421 0.424616 -0.401348 -0.358824 -0.842713 116 85 63 255 3
0.023879 0.079397 0.424487 -0.402341 -0.362098 -0.840837 115 84 64 255 3
0.024467 0.079369 0.424335 -0.400602 -0.369020 -0.838655 116 84 63 255 3
0.025056 0.079345 0.424206 -0.396669 -0.376407 -0.837240 116 83 63 255 3
0.025646 0.079324 0.424098 -0.393160 -0.383484 -0.835683 116 82 61 255 3
0.026235 0.079300 0.423968 -0.379189 -0.396823 -0.835911 116 80 59 255 3
0.026823 0.079276 0.423839 -0.373995 -0.401179 -0.836172 114 78 57 255 3
0.027415 0.079264 0.423774 -0.361226 -0.406740 -0.839094 113 76 57 255 3
0.028006 0.079252 0.423709 -0.353472 -0.406963 -0.842282 112 75 56 255 3
0.028605 0.079260 0.423752 -0.342015 -0.413217 -0.843965 110 73 54 255 3
0.029205 0.079272 0.423817 -0.335569 -0.412129 -0.847079 110 74 53 255 3
0.029806 0.079284 0.423882 -0.330054 -0.409683 -0.850426 109 74 53 255 3
0.030407 0.079296 0.423947 -0.319756 -0.412055 -0.853210 109 73 53 255 3
0.031012 0.079320 0.424076 -0.319096 -0.407697 -0.855547 104 69 51 255 3
0.031638 0.079393 0.424465 -0.317129 -0.404792 -0.857655 103 66 49 255 3
0.032266 0.079470 0.424875 -0.315855 -0.401771 -0.859544 106 68 49 255 3
0.032932 0.079635 0.425761 -0.315844 -0.399374 -0.860664 106 75 56 255 3
-0.068741 0.079408 0.421377 0.362801 -0.272773 -0.891050 96 70 56 255 3
-0.067981 0.079213 0.420340 0.361406 -0.272820 -0.891603 95 62 47 255 3
-0.067283 0.079087 0.419670 0.360561 -0.275229 -0.891204 98 61 46 255 3
-0.066607 0.078985 0.419131 0.359008 -0.274062 -0.892190 101 62 46 255 3
-0.065946 0.078899 0.418677 0.358158 -0.273017 -0.892852 104 65 49 255 3
-0.065313 0.078846 0.418396 0.356942 -0.277347 -0.892004 104 68 53 255 3
-0.064705 0.078822 0.418267 0.357631 -0.277787 -0.891591 106 71 55 255 3
-0.064083 0.078781 0.418051 0.358608 -0.282350 -0.889763 109 74 57 255 3
-0.063476 0.078757 0.417921 0.358974 -0.283223 -0.889338 113 78 59 255 3
-0.062865 0.078728 0.417770 0.356339 -0.288256 -0.888781 114 81 60 255 3
-0.062252 0.078696 0.417597 0.357248 -0.291873 -0.887234 117 84 61 255 3
-0.061655 0.078684 0.417532 0.358094 -0.291400 -0.887048 118 86 63 255 3
-0.061099 0.078724 0.417748 0.362794 -0.294614 -0.884072 118 88 64 255 3
-0.060543 0.078765 0.417964 0.366004 -0.299563 -0.881081 120 90 66 255 3
-0.060017 0.078846 0.418396 0.369231 -0.302123 -0.878857 121 90 66 255 3
-0.059484 0.078920 0.418785 0.376390 -0.305826 -0.874529 122 90 67 255 3
-0.058935 0.078973 0.419066 0.381714 -0.309692 -0.870853 123 91 67 255 3
-0.058387 0.079030 0.419368 0.392295 -0.314548 -0.864387 121 90 66 255 3
-0.057854 0.079107 0.419778 0.406363 -0.316811 -0.857030 121 91 66 255 3
-0.057323 0.079188 0.420210 0.426208 -0.314742 -0.848106 120 91 67 255 3
-0.056796 0.079278 0.420685 0.443226 -0.311075 -0.840704 120 92 68 255 3
-0.056256 0.079351 0.421074 0.461564 -0.300885 -0.834522 119 91 67 255 3
-0.055716 0.079424 0.421463 0.473312 -0.297208 -0.829242 119 91 67 255 3
-0.055171 0.079494 0.421830 0.482268 -0.292396 -0.825785 119 91 67 255 3
-0.054628 0.079567 0.422219 0.488989 -0.285974 -0.824080 119 91 67 255 3
-0.054078 0.079632 0.422564 0.492015 -0.277575 -0.825150 118 90 66 255 3
-0.053525 0.079693 0.422888 0.492522 -0.272893 -0.826409 118 90 66 255 3
-0.052971 0.079754 0.423212 0.489856 -0.265053 -0.830535 117 89 65 255 3
-0.052413 0.079811 0.423515 0.486184 -0.257542 -0.835043 116 88 64 255 3
-0.051857 0.079872 0.423839 0.483658 -0.246839 -0.839730 115 87 64 255 3
-0.051298 0.079929 0.424141 0.479034 -0.238548 -0.844761 113 85 63 255 3
-0.050737 0.079986 0.424443 0.473955 -0.232728 -0.849237 112 84 62 255 3
-0.050176 0.080043 0.424746 0.469067 -0.225144 -0.853983 111 82 61 255 3
-0.049612 0.080096 0.425026 0.462763 -0.214905 -0.860038 111 81 60 255 3
-0.049051 0.080157 0.425350 0.458816 -0.203501 -0.864913 110 81 59 255 3
-0.048492 0.080222 0.425696 0.453739 -0.199856 -0.868435 110 81 59 255 3
-0.047928 0.080279 0.425998 0.453373 -0.186745 -0.871538 109 79 57 255 3
-0.047362 0.080336 0.426301 0.449497 -0.178310 -0.875304 109 78 57 255 3
-0.046796 0.080393 0.426603 0.444697 -0.167996 -0.879785 109 78 57 255 3
-0.046229 0.080450 0.426905 0.444608 -0.155392 -0.882143 109 78 57 255 3
-0.045663 0.080511 0.427229 0.444622 -0.149165 -0.883211 108 78 57 255 3
-0.045094 0.080568 0.427532 0.445278 -0.146736 -0.883287 106 77 56 255 3
-0.044526 0.080629 0.427856 0.447234 -0.137361 -0.883806 105 76 56 255 3
-0.043958 0.080690 0.428180 0.447436 -0.134074 -0.884209 103 74 54 255 3
-0.043386 0.080747 0.428482 0.449479 -0.130536 -0.883702 103 75 54 255 3
-0.042814 0.080804 0.428784 0.451119 -0.126313 -0.883480 103 75 55 255 3
-0.042241 0.080861 0.429087 0.451759 -0.124308 -0.883437 102 75 54 255 3
-0.041665 0.080914 0.429367 0.454157 -0.119363 -0.882890 101 74 53 255 3
-0.041088 0.080967 0.429648 0.456869 -0.119935 -0.881411 101 75 54 255 3
-0.040510 0.081020 0.429929 0.456275 -0.120367 -0.881660 101 74 53 255 3
-0.039933 0.081077 0.430231 0.452595 -0.111986 -0.884656 102 73 52 255 3
-0.039358 0.081138 0.430555 0.447650 -0.109805 -0.887442 101 73 52 255 3
-0.038787 0.081211 0.430944 0.442929 -0.109824 -0.889805 101 73 51 255 3
-0.038216 0.081284 0.431333 0.433589 -0.110822 -0.894270 101 72 51 255 3
-0.037639 0.081349 0.431678 0.423190 -0.109475 -0.899403 101 72 51 255 3
-0.037064 0.081419 0.432045 0.407589 -0.109843 -0.906535 100 72 51 255 3
-0.036483 0.081480 0.432369 0.393856 -0.112976 -0.912203 100 71 50 255 3
-0.035899 0.081533 0.432650 0.375680 -0.115714 -0.919497 101 71 49 255 3
-0.035313 0.081585 0.432931 0.355839 -0.120442 -0.926754 102 71 50 255 3
-0.034727 0.081638 0.433212 0.333758 -0.123361 -0.934552 101 71 50 255 3
-0.034140 0.081691 0.433492 0.309949 -0.127186 -0.942208 100 71 50 255 3
-0.033553 0.081748 0.433795 0.284376 -0.129505 -0.949926 99 72 51 255 3
-0.032968 0.081809 0.434119 0.257105 -0.126466 -0.958073 98 72 52 255 3
-0.032382 0.081870 0.434443 0.231634 -0.123119 -0.964980 98 73 53 255 3
-0.031794 0.081931 0.434767 0.203668 -0.117806 -0.971926 98 73 52 255 3
-0.031208 0.081996 0.435112 0.177205 -0.110981 -0.977897 99 73 52 255 3
-0.030623 0.082070 0.435501 0.152282 -0.114591 -0.981672 99 72 51 255 3
-0.030037 0.082143 0.435890 0.121961 -0.103668 -0.987106 98 70 50 255 3
-0.029445 0.082200 0.436192 0.094497 -0.090429 -0.991410 96 68 47 255 3
-0.028844 0.082237 0.436386 0.066437 -0.073454 -0.995083 94 65 45 255 3
-0.028244 0.082277 0.436602 0.036986 -0.055761 -0.997759 92 63 43 255 3
-0.027645 0.082322 0.436840 0.014028 -0.039148 -0.999135 89 61 40 255 3
-0.027038 0.082342 0.436948 -0.011406 -0.017747 -0.999777 86 58 38 255 3
-0.026365 0.082159 0.435976 -0.032606 0.015525 -0.999348 78 55 37 255 3
-0.025713 0.082037 0.435328 -0.050275 0.043090 -0.997805 83 69 55 255 3
-0.025061 0.081907 0.434637 -0.067283 0.070892 -0.995212 94 92 80 255 4
-0.024423 0.081817 0.434162 -0.081965 0.084498 -0.993047 99 98 88 255 4
-0.023824 0.081858 0.434378 -0.095474 0.096708 -0.990723 101 100 88 255 4
-0.023179 0.081736 0.433730 -0.102986 0.110639 -0.988510 98 97 86 255 4
-0.022570 0.081740 0.433752 -0.108842 0.120110 -0.986776 95 94 83 255 4
-0.021974 0.081793 0.434032 -0.114290 0.128868 -0.985054 95 94 83 255 4
-0.021378 0.081846 0.434313 -0.115794 0.139833 -0.983381 92 92 81 255 4
-0.020780 0.081899 0.434594 -0.116338 0.146666 -0.982321 94 93 82 255 4
-0.020154 0.081838 0.434270 -0.110619 0.153645 -0.981915 94 92 82 255 4
-0.019546 0.081850 0.434335 -0.107044 0.160060 -0.981286 94 92 81 255 4
-0.018938 0.081862 0.434399 -0.097794 0.168425 -0.980851 92 91 80 255 4
-0.018331 0.081878 0.434486 -0.087692 0.175816 -0.980509 90 89 78 255 4
-0.017723 0.081895 0.434572 -0.074806 0.178635 -0.981068 90 89 78 255 4
-0.017091 0.081793 0.434032 -0.056152 0.175396 -0.982895 90 89 78 255 4
-0.016454 0.081659 0.433320 -0.035162 0.164433 -0.985761 89 88 77 255 4
-0.015837 0.081622 0.433125 -0.012581 0.162691 -0.986597 90 89 78 255 4
-0.015245 0.081716 0.433622 0.013466 0.169644 -0.985413 92 91 80 255 4
-0.014653 0.081813 0.434140 0.037814 0.179457 -0.983039 91 90 79 255 4
-0.014054 0.081883 0.434507 0.057038 0.182575 -0.981536 92 91 80 255 4
-0.013436 0.081838 0.434270 0.068206 0.183977 -0.980561 96 95 84 255 4
-0.012818 0.081793 0.434032 0.082962 0.178357 -0.980462 99 98 87 255 4
-0.012216 0.081850 0.434335 0.093911 0.176017 -0.979897 101 100 89 255 4
-0.011605 0.081846 0.434313 0.105526 0.165904 -0.980480 102 101 90 255 4
-0.010987 0.081789 0.434011 0.111648 0.159092 -0.980930 100 98 87 255 4
-0.010369 0.081732 0.433708 0.114291 0.155571 -0.981191 99 98 87 255 4
-0.009754 0.081691 0.433492 0.116238 0.148185 -0.982105 101 100 89 255 4
-0.009146 0.081703 0.433557 0.115506 0.140093 -0.983378 101 101 89 255 4
-0.008563 0.081960 0.434918 0.114056 0.128519 -0.985127 98 98 87 255 4
-0.007938 0.081826 0.434205 0.111745 0.113390 -0.987247 97 96 85 255 4
-0.007324 0.081789 0.434011 0.108335 0.098414 -0.989231 99 99 88 255 4
-0.006716 0.081809 0.434119 0.100866 0.083910 -0.991355 100 97 86 255 4
-0.006110 0.081874 0.434464 0.091889 0.066707 -0.993532 97 83 69 255 4
-0.005504 0.081944 0.434831 0.078970 0.044937 -0.995864 89 65 46 255 4
-0.004896 0.082009 0.435177 0.063696 0.021000 -0.997748 90 61 40 255 3
-0.004297 0.082257 0.436494 0.056489 -0.011608 -0.998336 95 65 43 255 3
-0.003681 0.082204 0.436214 0.035514 -0.033800 -0.998797 100 69 46 255 3
-0.003065 0.082151 0.435933 0.010728 -0.053924 -0.998487 103 71 48 255 3
-0.002451 0.082102 0.435674 -0.014460 -0.072421 -0.997269 103 72 49 255 3
-0.001837 0.082053 0.435415 -0.041268 -0.089231 -0.995156 104 72 49 255 3
-0.001224 0.082009 0.435177 -0.067268 -0.104040 -0.992296 104 72 49 255 3
-0.000612 0.081960 0.434918 -0.096497 -0.117339 -0.988393 106 74 51 255 3
0.000000 0.081915 0.434680 -0.125330 -0.132881 -0.983176 105 74 50 255 3
0.000611 0.081874 0.434464 -0.157247 -0.143113 -0.977135 104 74 50 255 3
0.001221 0.081830 0.434227 -0.188017 -0.152043 -0.970326 104 75 51 255 3
0.001831 0.081781 0.433968 -0.213508 -0.159228 -0.963878 103 75 51 255 3
0.002440 0.081736 0.433730 -0.236801 -0.166952 -0.957106 103 75 51 255 3
0.003048 0.081687 0.433471 -0.262755 -0.173777 -0.949084 103 76 52 255 3
0.003655 0.081638 0.433212 -0.286312 -0.179432 -0.941185 104 76 53 255 3
0.004262 0.081585 0.432931 -0.306725 -0.187657 -0.933116 104 76 53 255 3
0.004868 0.081537 0.432672 -0.324863 -0.195864 -0.925258 105 76 53 255 3
0.005473 0.081492 0.432434 -0.341762 -0.197003 -0.918906 106 77 53 255 3
0.006078 0.081443 0.432175 -0.354972 -0.196947 -0.913896 106 77 54 255 3
0.006681 0.081386 0.431873 -0.368311 -0.202880 -0.907297 106 77 54 255 3
0.007283 0.081325 0.431549 -0.378633 -0.209839 -0.901446 106 77 55 255 3
0.007883 0.081260 0.431203 -0.388991 -0.216032 -0.895554 106 77 55 255 3
0.008483 0.081195 0.430858 -0.395755 -0.217923 -0.892125 106 77 55 255 3
0.009081 0.081121 0.430469 -0.401427 -0.221926 -0.888597 107 77 55 255 3
0.009678 0.081056 0.430123 -0.405862 -0.228106 -0.885011 109 79 56 255 3
0.010276 0.080999 0.429821 -0.408798 -0.233953 -0.882128 110 78 55 255 3
0.010874 0.080951 0.429562 -0.404767 -0.239834 -0.882408 111 79 56 255 3
0.011471 0.080902 0.429303 -0.403272 -0.237676 -0.883675 111 79 56 255 3
0.012068 0.080857 0.429065 -0.400116 -0.243376 -0.883558 111 79 56 255 3
0.012664 0.080808 0.428806 -0.398936 -0.247268 -0.883011 112 79 57 255 3
0.013258 0.080755 0.428525 -0.397076 -0.249905 -0.883107 111 79 56 255 3
0.013853 0.080706 0.428266 -0.391899 -0.260127 -0.882468 112 79 57 255 3
0.014445 0.080653 0.427985 -0.392632 -0.257231 -0.882991 113 81 58 255 3
0.015038 0.080605 0.427726 -0.391173 -0.258425 -0.883289 113 81 58 255 3
0.015630 0.080556 0.427467 -0.390415 -0.261527 -0.882712 112 80 58 255 3
0.016221 0.080503 0.427186 -0.390522 -0.262982 -0.882232 112 80 57 255 3
0.016810 0.080450 0.426905 -0.387874 -0.273457 -0.880213 112 81 58 255 3
0.017401 0.080405 0.426668 -0.390444 -0.273380 -0.879100 111 81 59 255 3
0.017991 0.080360 0.426430 -0.390791 -0.283032 -0.875886 111 81 59 255 3
0.018581 0.080320 0.426214 -0.394405 -0.287312 -0.872867 111 82 60 255 3
0.019171 0.080279 0.425998 -0.395928 -0.292339 -0.870505 111 81 60 255 3
0.019759 0.080234 0.425761 -0.398525 -0.300625 -0.866488 112 83 61 255 3
0.020347 0.080189 0.425523 -0.402506 -0.304239 -0.863382 114 84 61 255 3
0.020933 0.080145 0.425286 -0.401735 -0.316624 -0.859278 116 84 62 255 3
0.021519 0.080100 0.425048 -0.405967 -0.324156 -0.854467 116 84 61 255 3
0.022105 0.080055 0.424810 -0.405791 -0.334723 -0.850467 116 85 62 255 3
0.022690 0.080010 0.424573 -0.408379 -0.342388 -0.846166 116 85 63 255 3
0.023275 0.079970 0.424357 -0.409589 -0.347989 -0.843292 116 85 63 255 3
0.023858 0.079925 0.424119 -0.408404 -0.357622 -0.839829 116 85 64 255 3
0.024442 0.079884 0.423903 -0.407404 -0.364857 -0.837198 117 85 63 255 3
0.025029 0.079856 0.423752 -0.401449 -0.373926 -0.836073 117 84 62 255 3
0.025619 0.079835 0.423644 -0.396275 -0.378260 -0.836592 117 83 61 255 3
0.026205 0.079807 0.423493 -0.382178 -0.389978 -0.837769 116 81 60 255 3
0.026793 0.079782 0.423363 -0.377533 -0.393125 -0.838404 115 80 59 255 3
0.027382 0.079766 0.423277 -0.362857 -0.400488 -0.841394 115 79 59 255 3
0.027972 0.079750 0.423191 -0.352659 -0.405256 -0.843445 113 77 57 255 3
0.028558 0.079725 0.423061 -0.342652 -0.404274 -0.848028 112 75 56 255 3
0.029155 0.079730 0.423083 -0.337384 -0.401416 -0.851491 110 73 54 255 3
0.029753 0.079738 0.423126 -0.326679 -0.402704 -0.855050 108 72 53 255 3
0.030354 0.079754 0.423212 -0.323635 -0.398685 -0.858086 107 72 52 255 3
0.030952 0.079762 0.423256 -0.318728 -0.394840 -0.861692 105 70 51 255 3
0.031553 0.079774 0.423320 -0.316569 -0.390728 -0.864359 105 67 49 255 3
0.032171 0.079831 0.423623 -0.315419 -0.386431 -0.866708 105 65 47 255 3
0.032802 0.079917 0.424076 -0.314205 -0.391637 -0.864810 105 64 47 255 3
0.033439 0.080014 0.424595 -0.315189 -0.384491 -0.867653 105 71 54 255 3
0.034143 0.080267 0.425934 -0.318141 -0.382625 -0.867401 90 77 60 255 3
-0.069561 0.080263 0.422759 0.370423 -0.264201 -0.890497 99 78 62 255 3
-0.068614 0.079853 0.420599 0.361164 -0.265874 -0.893796 101 65 49 255 3
-0.067859 0.079660 0.419584 0.357352 -0.262776 -0.896241 100 63 47 255 3
-0.067196 0.079574 0.419131 0.356205 -0.265441 -0.895912 103 66 49 255 3
-0.066524 0.079476 0.418612 0.356793 -0.265761 -0.895584 103 65 49 255 3
-0.065881 0.079410 0.418267 0.357719 -0.268743 -0.894323 102 66 50 255 3
-0.065249 0.079357 0.417986 0.357916 -0.270364 -0.893756 104 69 53 255 3
-0.064621 0.079308 0.417727 0.357112 -0.271736 -0.893661 106 73 55 255 3
-0.064007 0.079275 0.417554 0.357130 -0.272177 -0.893520 111 77 58 255 3
-0.063400 0.079250 0.417424 0.355947 -0.275961 -0.892831 115 81 60 255 3
-0.062787 0.079217 0.417252 0.356144 -0.279106 -0.891774 117 84 61 255 3
-0.062178 0.079189 0.417100 0.355607 -0.278104 -0.892301 119 86 62 255 3
-0.061620 0.079226 0.417295 0.359061 -0.281749 -0.889771 118 87 63 255 3
-0.061065 0.079267 0.417511 0.362069 -0.282779 -0.888224 120 90 65 255 3
-0.060509 0.079308 0.417727 0.366351 -0.286153 -0.885383 120 91 67 255 3
-0.059971 0.079373 0.418072 0.369240 -0.291742 -0.882354 120 91 67 255 3
-0.059429 0.079435 0.418396 0.375053 -0.297383 -0.878008 121 91 68 255 3
-0.058883 0.079492 0.418699 0.381658 -0.299375 -0.874478 121 91 67 255 3
-0.058345 0.079562 0.419066 0.391155 -0.307107 -0.867573 121 91 67 255 3
-0.057827 0.079660 0.419584 0.407720 -0.307683 -0.859707 120 91 67 255 3
-0.057308 0.079759 0.420102 0.428553 -0.302152 -0.851496 119 91 66 255 3
-0.056784 0.079853 0.420599 0.446535 -0.298615 -0.843467 119 91 67 255 3
-0.056251 0.079935 0.421031 0.464858 -0.295304 -0.834687 117 90 66 255 3
-0.055710 0.080009 0.421420 0.477037 -0.290446 -0.829504 118 90 66 255 3
-0.055165 0.080079 0.421787 0.491138 -0.278798 -0.825261 117 90 66 255 3
-0.054622 0.080152 0.422176 0.495544 -0.277679 -0.823001 117 89 65 255 3
-0.054076 0.080222 0.422543 0.497878 -0.272290 -0.823393 116 88 64 255 3
-0.053522 0.080284 0.422867 0.498945 -0.265016 -0.825119 115 87 64 255 3
-0.052968 0.080345 0.423191 0.498987 -0.253369 -0.828744 115 87 63 255 3
-0.052410 0.080402 0.423493 0.495625 -0.247707 -0.832465 114 86 62 255 3
-0.051855 0.080464 0.423817 0.489849 -0.242382 -0.837436 112 84 61 255 3
-0.051298 0.080525 0.424141 0.486509 -0.232606 -0.842142 111 82 60 255 3
-0.050743 0.080591 0.424487 0.480583 -0.222763 -0.848184 109 81 59 255 3
-0.050186 0.080657 0.424832 0.473880 -0.219563 -0.852778 109 81 59 255 3
-0.049629 0.080722 0.425178 0.466780 -0.212746 -0.858403 108 79 58 255 3
-0.049071 0.080788 0.425523 0.462758 -0.199182 -0.863818 108 80 58 255 3
-0.048507 0.080845 0.425826 0.460917 -0.185242 -0.867894 107 78 57 255 3
-0.047945 0.080907 0.426149 0.457409 -0.175462 -0.871774 106 77 56 255 3
-0.047381 0.080968 0.426473 0.452955 -0.169197 -0.875331 106 76 55 255 3
-0.046817 0.081030 0.426797 0.448565 -0.159128 -0.879470 106 76 55 255 3
-0.046250 0.081087 0.427100 0.448936 -0.147415 -0.881320 106 76 56 255 3
-0.045681 0.081145 0.427402 0.451347 -0.133144 -0.882360 105 75 55 255 3
-0.045112 0.081202 0.427704 0.448870 -0.124658 -0.884860 103 75 55 255 3
-0.044544 0.081264 0.428028 0.448493 -0.121032 -0.885553 102 75 55 255 3
-0.043976 0.081325 0.428352 0.449386 -0.119128 -0.885359 101 74 54 255 3
-0.043406 0.081387 0.428676 0.451169 -0.114879 -0.885014 101 75 54 255 3
-0.042836 0.081448 0.429000 0.452785 -0.113864 -0.884319 100 74 54 255 3
-0.042262 0.081505 0.429303 0.454532 -0.110734 -0.883821 100 74 54 255 3
-0.041686 0.081559 0.429583 0.455975 -0.104613 -0.883823 99 73 53 255 3
-0.041110 0.081616 0.429886 0.458266 -0.102233 -0.882916 98 72 52 255 3
-0.040536 0.081678 0.430210 0.456949 -0.097092 -0.884178 99 73 52 255 3
-0.039961 0.081739 0.430534 0.453194 -0.091727 -0.886680 99 71 51 255 3
-0.039386 0.081801 0.430858 0.450933 -0.085296 -0.888473 98 71 50 255 3
-0.038813 0.081870 0.431225 0.441886 -0.085293 -0.893007 98 71 49 255 3
-0.038244 0.081952 0.431657 0.431798 -0.086799 -0.897784 97 70 49 255 3
-0.037673 0.082030 0.432067 0.420362 -0.088383 -0.903042 98 70 49 255 3
-0.037097 0.082100 0.432434 0.406510 -0.090744 -0.909129 98 70 49 255 3
-0.036516 0.082161 0.432758 0.389812 -0.094248 -0.916059 97 69 48 255 3
-0.035933 0.082219 0.433060 0.372247 -0.095388 -0.923219 99 69 48 255 3
-0.035348 0.082276 0.433363 0.351877 -0.103794 -0.930274 99 69 48 255 3
-0.034761 0.082330 0.433644 0.328724 -0.116069 -0.937267 97 68 48 255 3
-0.034174 0.082383 0.433924 0.305570 -0.122930 -0.944201 97 69 49 255 3
-0.033587 0.082440 0.434227 0.281674 -0.121887 -0.951737 95 69 50 255 3
-0.032997 0.082494 0.434507 0.255514 -0.124501 -0.958756 94 69 51 255 3
-0.032407 0.082547 0.434788 0.229504 -0.117181 -0.966228 94 70 51 255 3
-0.031816 0.082600 0.435069 0.204383 -0.115294 -0.972078 94 71 51 255 3
-0.031225 0.082654 0.435350 0.179954 -0.108261 -0.977699 94 69 49 255 3
-0.030634 0.082711 0.435652 0.152437 -0.094674 -0.983768 94 69 49 255 3
-0.030049 0.082789 0.436062 0.125152 -0.094649 -0.987613 93 67 47 255 3
-0.029462 0.082863 0.436451 0.101744 -0.083370 -0.991311 92 65 45 255 3
-0.028874 0.082936 0.436840 0.072363 -0.071404 -0.994819 92 64 44 255 3
-0.028272 0.082973 0.437034 0.043801 -0.053243 -0.997620 89 62 42 255 3
-0.027673 0.083018 0.437272 0.019121 -0.035289 -0.999194 88 60 41 255 3
-0.027073 0.083064 0.437509 -0.007524 -0.018517 -0.999800 88 60 40 255 3
-0.026465 0.083088 0.437639 -0.031937 -0.002128 -0.999488 86 56 36 255 3
-0.025741 0.082740 0.435803 -0.046163 0.052324 -0.997563 79 56 39 255 3
-0.025106 0.082666 0.435415 -0.061735 0.070064 -0.995630 86 76 62 255 4
-0.024447 0.082510 0.434594 -0.075164 0.089928 -0.993108 97 96 86 255 4
-0.023810 0.082420 0.434119 -0.085989 0.107028 -0.990531 102 100 89 255 4
-0.023227 0.082518 0.434637 -0.096737 0.116944 -0.988416 98 97 85 255 4
-0.022564 0.082330 0.433644 -0.101733 0.132506 -0.985948 96 95 83 255 4
-0.021964 0.082366 0.433838 -0.106681 0.140199 -0.984359 97 96 84 255 4
-0.021368 0.082420 0.434119 -0.110778 0.151609 -0.982213 94 93 82 255 4
-0.020771 0.082473 0.434399 -0.111332 0.161037 -0.980649 94 93 82 255 4
-0.020171 0.082518 0.434637 -0.109604 0.168073 -0.979662 93 91 81 255 4
-0.019550 0.082477 0.434421 -0.102332 0.177431 -0.978798 94 92 81 255 4
-0.018943 0.082494 0.434507 -0.093825 0.186894 -0.977889 91 90 79 255 4
-0.018336 0.082510 0.434594 -0.083405 0.192753 -0.977696 93 92 81 255 4
-0.017728 0.082526 0.434680 -0.070046 0.201307 -0.977020 92 91 80 255 4
