ply
format ascii 1.0
comment Created by labeled_geometry.py
element vertex 648
property float x
property float y
property float z
property float nx
property float ny
property float nz
property uchar red
property uchar green
property uchar blue
property uchar alpha
property uchar label
end_header
0.085554 -0.008679 0.293888 0.236043 -0.811490 -0.534573 123 122 106 255 3
0.086001 -0.008683 0.294001 0.243316 -0.811771 -0.530872 139 140 126 255 3
0.086442 -0.008686 0.294098 0.250379 -0.810981 -0.528791 135 135 122 255 3
0.088040 -0.008804 0.298108 0.244179 -0.812104 -0.529966 125 126 113 255 3
0.088560 -0.008814 0.298446 0.242213 -0.807308 -0.538133 124 125 112 255 3
0.089061 -0.008822 0.298720 0.236750 -0.805394 -0.543406 120 121 110 255 3
0.089506 -0.008824 0.298800 0.235478 -0.802979 -0.547517 120 122 109 255 3
0.089945 -0.008826 0.298865 0.232878 -0.799564 -0.553593 119 119 107 255 3
0.090390 -0.008829 0.298945 0.233141 -0.796760 -0.557512 117 118 106 255 3
0.090830 -0.008831 0.299010 0.226811 -0.796031 -0.561152 115 116 104 255 3
0.091275 -0.008833 0.299090 0.225793 -0.791121 -0.568458 115 116 104 255 3
0.091691 -0.008833 0.299074 0.224419 -0.789824 -0.570802 113 114 103 255 3
0.092171 -0.008838 0.299267 0.215157 -0.786597 -0.578768 116 116 104 255 3
0.092746 -0.008853 0.299766 0.205363 -0.781977 -0.588505 110 104 90 255 3
0.093758 -0.008909 0.301667 0.171722 -0.752481 -0.635833 116 91 72 255 3
0.094182 -0.008909 0.301667 0.166502 -0.748938 -0.641381 116 83 62 255 3
0.094652 -0.008913 0.301812 0.160276 -0.742197 -0.650735 114 83 61 255 3
0.095188 -0.008924 0.302166 0.151097 -0.728387 -0.668298 113 81 59 255 3
0.095705 -0.008932 0.302456 0.143641 -0.710659 -0.688717 111 79 57 255 3
0.096212 -0.008940 0.302714 0.131542 -0.695405 -0.706476 109 77 54 255 3
0.096802 -0.008955 0.303229 0.114314 -0.668623 -0.734762 108 76 52 255 3
0.097394 -0.008970 0.303744 0.107472 -0.638469 -0.762107 108 77 52 255 3
0.098003 -0.008987 0.304308 0.101997 -0.613191 -0.783322 104 76 53 255 3
0.098811 -0.009022 0.305484 0.106702 -0.588014 -0.801782 99 73 52 255 3
0.099680 -0.009062 0.306836 0.117827 -0.560959 -0.819415 88 64 46 255 3
0.116069 -0.010506 0.355745 -0.296470 0.954087 -0.042693 77 71 55 255 3
-0.001300 -0.008667 0.308141 -0.624731 -0.242215 -0.742323 81 62 45 255 1
-0.000863 -0.008626 0.306675 -0.609776 -0.247107 -0.753068 79 56 39 255 1
-0.000430 -0.008599 0.305725 -0.596255 -0.249289 -0.763109 79 56 39 255 1
0.000000 -0.008573 0.304807 -0.574790 -0.259989 -0.775901 79 56 38 255 1
0.000428 -0.008553 0.304099 -0.561826 -0.257554 -0.786141 80 55 37 255 1
0.000854 -0.008537 0.303535 -0.546514 -0.265227 -0.794341 78 53 35 255 1
0.001278 -0.008522 0.302987 -0.526992 -0.262991 -0.808156 79 53 36 255 1
0.001701 -0.008506 0.302424 -0.510145 -0.275809 -0.814666 80 55 37 255 1
0.002123 -0.008493 0.301957 -0.486407 -0.286352 -0.825476 80 55 37 255 1
0.002545 -0.008483 0.301602 -0.447298 -0.297587 -0.843425 79 54 37 255 1
0.002966 -0.008473 0.301248 -0.435760 -0.289855 -0.852113 78 54 37 255 1
0.003385 -0.008463 0.300894 -0.400620 -0.297570 -0.866577 77 53 36 255 1
0.003804 -0.008453 0.300539 -0.354959 -0.308319 -0.882578 79 53 36 255 1
0.004222 -0.008444 0.300201 -0.313146 -0.303497 -0.899905 79 53 36 255 1
0.004639 -0.008435 0.299895 -0.280120 -0.299878 -0.911924 80 53 37 255 1
0.005056 -0.008427 0.299622 -0.246418 -0.285516 -0.926153 81 54 38 255 1
0.005473 -0.008420 0.299364 -0.207323 -0.285984 -0.935538 84 57 40 255 1
0.005889 -0.008413 0.299122 -0.187677 -0.248265 -0.950338 86 59 42 255 1
0.006305 -0.008407 0.298881 -0.151035 -0.232031 -0.960911 91 64 45 255 1
0.006721 -0.008402 0.298704 -0.135758 -0.206531 -0.968976 92 66 46 255 1
0.007140 -0.008400 0.298639 -0.133559 -0.169140 -0.976501 95 68 48 255 1
0.007558 -0.008398 0.298575 -0.119626 -0.145197 -0.982144 96 69 48 255 1
0.007976 -0.008396 0.298494 -0.136273 -0.107296 -0.984844 98 72 50 255 1
0.008394 -0.008394 0.298430 -0.143375 -0.077208 -0.986652 100 74 52 255 1
0.008811 -0.008392 0.298349 -0.145361 -0.056036 -0.987791 104 77 55 255 1
0.009230 -0.008391 0.298317 -0.146598 -0.039784 -0.988396 103 77 54 255 1
0.009649 -0.008391 0.298317 -0.138853 -0.026612 -0.989955 102 76 54 255 1
0.010069 -0.008391 0.298333 -0.126492 -0.020890 -0.991748 101 76 54 255 1
0.010489 -0.008391 0.298333 -0.107074 -0.016941 -0.994107 103 77 54 255 1
0.010911 -0.008393 0.298398 -0.085562 -0.013764 -0.996238 105 78 55 255 1
0.011332 -0.008394 0.298430 -0.067304 -0.013239 -0.997645 106 78 55 255 1
0.011753 -0.008395 0.298462 -0.048845 -0.009907 -0.998757 107 79 56 255 1
0.012174 -0.008396 0.298510 -0.031956 -0.005360 -0.999475 107 79 54 255 1
0.012596 -0.008397 0.298543 -0.013601 -0.002014 -0.999905 106 78 53 255 1
0.013018 -0.008399 0.298607 0.003945 0.001821 -0.999991 105 76 52 255 1
0.013442 -0.008401 0.298687 0.023489 0.004379 -0.999714 104 76 52 255 1
0.013866 -0.008403 0.298768 0.042463 0.009255 -0.999055 103 76 52 255 1
0.014286 -0.008404 0.298784 0.062407 0.015590 -0.997929 100 72 49 255 1
0.014708 -0.008405 0.298816 0.081885 0.022128 -0.996396 97 70 47 255 1
0.015128 -0.008404 0.298800 0.098260 0.027945 -0.994768 95 68 46 255 1
0.015546 -0.008403 0.298768 0.120156 0.035786 -0.992110 92 66 44 255 1
0.015965 -0.008402 0.298736 0.141609 0.039078 -0.989151 91 63 43 255 1
0.016386 -0.008403 0.298752 0.164812 0.044346 -0.985328 89 61 41 255 1
0.016806 -0.008403 0.298752 0.190609 0.050464 -0.980368 84 56 37 255 1
0.017227 -0.008403 0.298768 0.215021 0.053095 -0.975165 80 52 33 255 1
0.017651 -0.008405 0.298832 0.244021 0.054734 -0.968224 78 51 32 255 1
0.018075 -0.008407 0.298897 0.270976 0.060752 -0.960667 76 49 31 255 1
0.018502 -0.008410 0.299010 0.298851 0.066367 -0.951989 75 49 31 255 1
0.018933 -0.008415 0.299171 0.328986 0.072088 -0.941579 76 49 31 255 1
0.019364 -0.008419 0.299332 0.360111 0.076741 -0.929748 79 51 32 255 1
0.019801 -0.008426 0.299573 0.392648 0.084917 -0.915760 86 54 34 255 1
0.020241 -0.008434 0.299847 0.423965 0.090702 -0.901126 90 56 35 255 1
0.020686 -0.008443 0.300185 0.454322 0.097284 -0.885509 93 58 36 255 1
0.021128 -0.008451 0.300475 0.479223 0.103462 -0.871574 94 60 38 255 1
0.021573 -0.008460 0.300781 0.500768 0.107343 -0.858900 96 62 40 255 1
0.022018 -0.008469 0.301087 0.516944 0.112005 -0.848660 97 65 43 255 1
0.022465 -0.008477 0.301393 0.523391 0.112200 -0.844674 99 66 45 255 1
0.022913 -0.008486 0.301715 0.524682 0.111509 -0.843964 99 68 46 255 1
0.023366 -0.008497 0.302086 0.517070 0.106728 -0.849263 101 70 47 255 1
0.023822 -0.008508 0.302488 0.499235 0.099906 -0.860688 103 73 49 255 1
0.024279 -0.008519 0.302875 0.484442 0.095480 -0.869597 104 74 50 255 1
0.024742 -0.008532 0.303326 0.467026 0.085825 -0.880069 106 75 51 255 1
0.025203 -0.008543 0.303744 0.448348 0.087300 -0.889586 109 77 52 255 1
0.025659 -0.008553 0.304082 0.426555 0.085620 -0.900400 108 76 52 255 1
0.026115 -0.008562 0.304421 0.408029 0.080676 -0.909398 109 78 54 255 1
0.026556 -0.008566 0.304566 0.385835 0.078871 -0.919190 111 80 55 255 1
0.026997 -0.008571 0.304711 0.353530 0.077642 -0.932195 113 82 58 255 1
0.027436 -0.008574 0.304823 0.312524 0.059392 -0.948051 114 84 60 255 1
0.027872 -0.008576 0.304904 0.270110 0.053499 -0.961342 113 84 62 255 1
0.028301 -0.008576 0.304904 0.218114 0.044429 -0.974911 114 85 63 255 1
0.028732 -0.008577 0.304936 0.151876 0.033836 -0.987820 116 87 65 255 1
0.029163 -0.008577 0.304952 0.085720 0.024395 -0.996021 117 88 66 255 1
0.029587 -0.008576 0.304904 0.008982 -0.009117 -0.999918 119 91 68 255 1
0.030005 -0.008573 0.304791 -0.110257 -0.051449 -0.992571 121 93 70 255 1
0.030425 -0.008571 0.304711 -0.192477 -0.077771 -0.978215 121 93 70 255 1
0.030844 -0.008568 0.304614 -0.272500 -0.115763 -0.955166 120 92 69 255 1
0.031234 -0.008557 0.304243 -0.394084 -0.227965 -0.890354 119 91 68 255 1
0.031620 -0.008546 0.303841 -0.474531 -0.301342 -0.827051 119 90 67 255 1
0.031997 -0.008532 0.303358 -0.527691 -0.381138 -0.759128 119 89 66 255 1
0.032372 -0.008519 0.302875 -0.556673 -0.459793 -0.691885 118 88 64 255 4
0.032744 -0.008505 0.302375 -0.565257 -0.520675 -0.639829 117 89 64 255 4
0.033100 -0.008487 0.301747 -0.574501 -0.566878 -0.590422 117 89 65 255 4
0.033412 -0.008459 0.300733 -0.570554 -0.612951 -0.546588 119 91 67 255 4
0.033724 -0.008431 0.299750 -0.577925 -0.625285 -0.524424 122 94 70 255 4
0.034021 -0.008400 0.298655 -0.589108 -0.627448 -0.509177 121 94 70 255 4
0.034320 -0.008371 0.297609 -0.592084 -0.622497 -0.511795 121 94 70 255 4
0.034660 -0.008352 0.296932 -0.578780 -0.619424 -0.530402 120 94 70 255 4
0.035016 -0.008337 0.296417 -0.555448 -0.615428 -0.559219 121 95 71 255 4
0.035393 -0.008328 0.296079 -0.532822 -0.611995 -0.584434 121 96 73 255 4
0.035768 -0.008318 0.295740 -0.508125 -0.606654 -0.611375 123 98 75 255 4
0.036151 -0.008311 0.295467 -0.487415 -0.600387 -0.634005 126 101 78 255 4
0.036530 -0.008302 0.295177 -0.464301 -0.590909 -0.659736 127 103 79 255 4
0.036909 -0.008294 0.294887 -0.442823 -0.581761 -0.682247 128 104 81 255 4
0.037299 -0.008289 0.294694 -0.428497 -0.572564 -0.698972 129 107 82 255 4
0.037687 -0.008283 0.294484 -0.412764 -0.564939 -0.714472 129 107 82 255 4
0.038076 -0.008277 0.294291 -0.400169 -0.555068 -0.729221 129 107 82 255 4
0.038463 -0.008272 0.294082 -0.387830 -0.545369 -0.743075 129 107 82 255 4
0.038849 -0.008266 0.293872 -0.379479 -0.537724 -0.752894 129 106 81 255 4
0.039234 -0.008260 0.293663 -0.370563 -0.529224 -0.763286 130 106 81 255 4
0.039619 -0.008254 0.293454 -0.362529 -0.518437 -0.774465 130 106 80 255 4
0.040003 -0.008248 0.293244 -0.355372 -0.508251 -0.784469 130 105 80 255 4
0.040382 -0.008241 0.293003 -0.348273 -0.495648 -0.795637 130 105 80 255 4
0.040760 -0.008234 0.292761 -0.340742 -0.484379 -0.805774 129 104 79 255 4
0.041136 -0.008227 0.292503 -0.333390 -0.472152 -0.816042 128 104 79 255 4
0.041511 -0.008220 0.292246 -0.326351 -0.462535 -0.824352 126 103 78 255 4
0.041887 -0.008213 0.292004 -0.318360 -0.451173 -0.833720 125 103 78 255 4
0.042263 -0.008206 0.291763 -0.311048 -0.439698 -0.842565 124 101 77 255 4
0.042638 -0.008200 0.291521 -0.300603 -0.427621 -0.852513 123 100 76 255 4
0.043017 -0.008194 0.291312 -0.291102 -0.418649 -0.860228 122 100 76 255 4
0.043405 -0.008190 0.291167 -0.282078 -0.411535 -0.866643 122 99 76 255 4
0.043795 -0.008186 0.291038 -0.269534 -0.405093 -0.873642 121 99 75 255 4
0.044185 -0.008182 0.290909 -0.258229 -0.398988 -0.879844 120 98 74 255 4
0.044579 -0.008180 0.290812 -0.245676 -0.394833 -0.885296 120 98 75 255 4
0.044970 -0.008176 0.290700 -0.233564 -0.390535 -0.890466 121 98 75 255 4
0.045364 -0.008174 0.290603 -0.219295 -0.389114 -0.894707 121 98 75 255 4
0.045755 -0.008171 0.290490 -0.205430 -0.385596 -0.899508 122 98 76 255 4
0.046148 -0.008168 0.290394 -0.189169 -0.382824 -0.904246 121 96 75 255 4
0.046544 -0.008166 0.290313 -0.175054 -0.383827 -0.906661 121 96 76 255 4
0.046939 -0.008163 0.290233 -0.160717 -0.382807 -0.909741 122 97 76 255 4
0.047331 -0.008161 0.290136 -0.145377 -0.385949 -0.910993 123 99 77 255 4
0.047729 -0.008159 0.290072 -0.129897 -0.386123 -0.913255 122 100 78 255 4
0.048123 -0.008157 0.289991 -0.116085 -0.387553 -0.914509 120 99 76 255 4
0.048518 -0.008154 0.289911 -0.099960 -0.391442 -0.914757 121 99 75 255 4
0.048915 -0.008152 0.289846 -0.085322 -0.395784 -0.914372 122 98 74 255 4
0.049317 -0.008152 0.289814 -0.071702 -0.397136 -0.914955 122 97 72 255 4
0.049738 -0.008154 0.289895 -0.054707 -0.408393 -0.911165 122 97 71 255 4
0.050162 -0.008157 0.289991 -0.037598 -0.417140 -0.908064 122 97 71 255 4
0.050587 -0.008159 0.290088 -0.021971 -0.425854 -0.904525 123 97 71 255 4
0.051001 -0.008160 0.290120 -0.006495 -0.434000 -0.900889 123 97 72 255 4
0.051415 -0.008161 0.290152 0.011652 -0.444798 -0.895555 123 98 72 255 4
0.051828 -0.008162 0.290184 0.027101 -0.450949 -0.892138 124 98 73 255 4
0.052242 -0.008163 0.290217 0.041043 -0.457493 -0.888265 123 99 73 255 4
0.052662 -0.008165 0.290281 0.058502 -0.468074 -0.881751 123 100 74 255 4
0.053088 -0.008167 0.290378 0.074430 -0.476463 -0.876038 125 101 75 255 4
0.053514 -0.008170 0.290474 0.088774 -0.484626 -0.870205 126 101 75 255 4
0.053941 -0.008173 0.290571 0.103903 -0.493520 -0.863506 129 103 77 255 4
0.054367 -0.008176 0.290668 0.116090 -0.501710 -0.857211 128 103 77 255 4
0.054794 -0.008178 0.290764 0.126783 -0.510633 -0.850400 129 104 78 255 4
0.055221 -0.008181 0.290861 0.134788 -0.518815 -0.844194 129 104 78 255 4
0.055643 -0.008183 0.290925 0.142122 -0.527246 -0.837743 131 105 79 255 4
0.056068 -0.008185 0.291006 0.148507 -0.535302 -0.831503 131 105 80 255 4
0.056492 -0.008187 0.291086 0.152256 -0.542052 -0.826436 131 104 79 255 4
0.056918 -0.008190 0.291167 0.154186 -0.548106 -0.822074 131 105 79 255 4
0.057359 -0.008194 0.291328 0.154105 -0.559154 -0.814615 131 107 80 255 4
0.057819 -0.008201 0.291585 0.153865 -0.570080 -0.807053 132 108 81 255 4
0.058284 -0.008209 0.291859 0.152018 -0.583136 -0.798025 133 109 82 255 4
0.058746 -0.008216 0.292117 0.150651 -0.595493 -0.789108 135 110 84 255 4
0.059209 -0.008224 0.292375 0.146282 -0.606055 -0.781856 135 111 85 255 4
0.059673 -0.008231 0.292632 0.138525 -0.616026 -0.775450 135 111 85 255 4
0.060081 -0.008230 0.292616 0.131396 -0.617927 -0.775178 135 111 85 255 4
0.060490 -0.008230 0.292600 0.121801 -0.620107 -0.775004 134 111 85 255 4
0.060898 -0.008229 0.292584 0.111514 -0.623885 -0.773519 133 110 85 255 4
0.061309 -0.008229 0.292584 0.102206 -0.626920 -0.772350 133 110 85 255 4
0.061717 -0.008229 0.292568 0.090095 -0.630111 -0.771260 133 111 86 255 4
0.062125 -0.008229 0.292552 0.076732 -0.632837 -0.770474 133 110 85 255 4
0.062533 -0.008228 0.292536 0.063997 -0.636766 -0.768397 132 109 84 255 4
0.062945 -0.008228 0.292536 0.050823 -0.638107 -0.768268 133 109 84 255 4
0.063353 -0.008228 0.292520 0.036655 -0.641893 -0.765918 133 110 84 255 4
0.063764 -0.008228 0.292520 0.022803 -0.645397 -0.763507 134 109 84 255 4
0.064172 -0.008227 0.292503 0.008639 -0.648572 -0.761105 135 110 85 255 4
0.064583 -0.008227 0.292503 -0.005043 -0.652002 -0.758201 134 110 85 255 4
0.064995 -0.008227 0.292503 -0.013014 -0.653828 -0.756531 134 111 85 255 4
0.065410 -0.008228 0.292520 -0.026396 -0.657321 -0.753148 135 112 86 255 4
0.065828 -0.008229 0.292552 -0.039273 -0.662908 -0.747670 135 112 86 255 4
0.066243 -0.008229 0.292568 -0.047265 -0.668164 -0.742511 136 112 86 255 4
0.066658 -0.008229 0.292584 -0.057516 -0.670187 -0.739960 138 112 86 255 4
0.067074 -0.008230 0.292600 -0.064506 -0.675771 -0.734284 137 112 85 255 4
0.067481 -0.008229 0.292584 -0.071687 -0.679184 -0.730459 137 112 85 255 4
0.067878 -0.008228 0.292520 -0.077565 -0.680975 -0.728187 136 111 85 255 4
0.068274 -0.008226 0.292455 -0.083311 -0.681245 -0.727299 136 111 85 255 4
0.068670 -0.008224 0.292391 -0.088437 -0.682880 -0.725158 136 111 85 255 4
0.069066 -0.008222 0.292326 -0.091283 -0.685269 -0.722546 138 112 85 255 4
0.069466 -0.008221 0.292278 -0.093615 -0.688328 -0.719333 138 111 85 255 4
0.069862 -0.008219 0.292214 -0.094566 -0.691975 -0.715701 139 111 85 255 4
0.070257 -0.008217 0.292149 -0.096176 -0.693960 -0.713562 138 111 84 255 4
0.070648 -0.008215 0.292069 -0.097650 -0.694927 -0.712419 138 111 84 255 4
0.071032 -0.008212 0.291956 -0.097619 -0.696786 -0.710605 135 108 82 255 4
0.071427 -0.008210 0.291891 -0.097299 -0.700322 -0.707165 135 108 83 255 4
0.071833 -0.008209 0.291875 -0.095209 -0.705119 -0.702668 135 109 84 255 4
0.072236 -0.008209 0.291843 -0.092378 -0.708646 -0.699491 135 109 84 255 4
0.072622 -0.008206 0.291747 -0.089855 -0.710418 -0.698020 134 108 83 255 4
0.073004 -0.008203 0.291634 -0.085179 -0.712459 -0.696525 133 107 82 255 4
0.073390 -0.008200 0.291537 -0.078398 -0.714183 -0.695555 133 106 81 255 4
0.073775 -0.008197 0.291441 -0.071401 -0.716402 -0.694025 133 105 80 255 4
0.074157 -0.008194 0.291328 -0.062717 -0.716411 -0.694854 132 104 79 255 4
0.074546 -0.008192 0.291247 -0.055105 -0.716899 -0.694996 131 103 79 255 4
0.074930 -0.008189 0.291151 -0.045299 -0.718428 -0.694125 129 103 79 255 4
0.075319 -0.008187 0.291070 -0.036719 -0.717952 -0.695124 130 103 79 255 4
0.075707 -0.008185 0.290990 -0.025470 -0.718742 -0.694810 131 104 80 255 4
0.076091 -0.008182 0.290893 -0.014587 -0.718787 -0.695077 130 103 78 255 4
0.076488 -0.008181 0.290845 -0.002924 -0.721443 -0.692468 130 102 78 255 4
0.076893 -0.008180 0.290829 0.006817 -0.724511 -0.689230 131 102 78 255 4
0.077310 -0.008181 0.290861 0.018266 -0.727981 -0.685354 131 103 78 255 4
0.077732 -0.008182 0.290909 0.029154 -0.732086 -0.680588 130 103 78 255 4
0.078163 -0.008185 0.290990 0.037844 -0.735347 -0.676634 130 103 78 255 4
0.078594 -0.008187 0.291070 0.045972 -0.736063 -0.675351 131 103 79 255 4
0.079025 -0.008189 0.291151 0.055237 -0.736296 -0.674401 129 102 78 255 4
0.079456 -0.008191 0.291231 0.066988 -0.741092 -0.668054 128 101 78 255 4
0.079888 -0.008194 0.291312 0.079425 -0.745597 -0.661647 130 102 79 255 4
0.080315 -0.008195 0.291376 0.089179 -0.748480 -0.657134 130 102 79 255 4
0.080748 -0.008198 0.291457 0.100024 -0.749876 -0.653973 129 100 78 255 4
0.081225 -0.008205 0.291698 0.113824 -0.754437 -0.646427 127 99 77 255 4
0.081712 -0.008212 0.291972 0.130888 -0.763358 -0.632576 129 101 78 255 4
0.082222 -0.008222 0.292326 0.149981 -0.775490 -0.613286 129 102 78 255 4
0.082742 -0.008233 0.292713 0.165971 -0.784659 -0.597297 133 104 79 255 4
0.083259 -0.008243 0.293083 0.181887 -0.795567 -0.577919 134 105 80 255 4
0.083759 -0.008252 0.293389 0.195798 -0.803430 -0.562284 134 107 82 255 4
0.084264 -0.008261 0.293711 0.212909 -0.805734 -0.552687 139 110 84 255 4
0.084783 -0.008272 0.294082 0.223981 -0.811341 -0.539962 119 96 73 255 4
0.087007 -0.008447 0.300330 0.236047 -0.808730 -0.538738 93 73 54 255 4
0.087603 -0.008464 0.300926 0.233470 -0.799795 -0.553010 105 92 73 255 3
0.085836 -0.008253 0.293437 0.239905 -0.800202 -0.549657 132 135 120 255 3
0.086282 -0.008257 0.293550 0.249234 -0.800000 -0.545786 138 140 126 255 3
0.086728 -0.008260 0.293663 0.257238 -0.801265 -0.540187 133 134 120 255 3
0.088116 -0.008352 0.296948 0.256969 -0.810825 -0.525860 121 123 110 255 3
0.088696 -0.008368 0.297496 0.251964 -0.808925 -0.531183 121 123 111 255 3
0.089255 -0.008381 0.297963 0.246741 -0.805143 -0.539318 125 126 113 255 3
0.089698 -0.008383 0.298043 0.243579 -0.803775 -0.542784 121 122 109 255 3
0.090141 -0.008385 0.298124 0.241936 -0.801835 -0.546377 121 122 109 255 3
0.090585 -0.008388 0.298204 0.238896 -0.799060 -0.551754 124 124 111 255 3
0.091029 -0.008390 0.298285 0.239361 -0.796612 -0.555082 117 118 106 255 3
0.091468 -0.008392 0.298349 0.235976 -0.793819 -0.560505 113 114 102 255 3
0.091893 -0.008392 0.298365 0.236016 -0.791474 -0.563796 118 118 106 255 3
0.092577 -0.008416 0.299219 0.212753 -0.790056 -0.574933 114 113 101 255 3
0.093107 -0.008426 0.299573 0.204394 -0.784725 -0.585175 114 103 88 255 3
0.094112 -0.008479 0.301441 0.170635 -0.761800 -0.624935 115 87 67 255 3
0.094576 -0.008482 0.301570 0.165214 -0.754675 -0.634956 114 82 60 255 3
0.095112 -0.008492 0.301924 0.155771 -0.743292 -0.650578 112 81 59 255 3
0.095654 -0.008503 0.302295 0.147693 -0.727240 -0.670305 111 79 56 255 3
0.096161 -0.008510 0.302553 0.139122 -0.713392 -0.686816 109 76 54 255 3
0.096771 -0.008526 0.303132 0.119327 -0.683622 -0.720015 107 74 50 255 3
0.097363 -0.008541 0.303648 0.107636 -0.653005 -0.749666 107 75 50 255 3
0.098044 -0.008563 0.304437 0.103933 -0.620465 -0.777317 102 75 52 255 3
0.098905 -0.008600 0.305773 0.106261 -0.588175 -0.801722 93 69 51 255 3
0.100109 -0.008667 0.308157 0.300712 -0.474566 -0.827260 84 68 51 255 3
-0.001302 -0.008247 0.308624 -0.630224 -0.211668 -0.747004 76 61 45 255 1
-0.000863 -0.008199 0.306836 -0.611113 -0.226835 -0.758345 79 57 41 255 1
-0.000430 -0.008173 0.305886 -0.589977 -0.239787 -0.770992 79 57 40 255 1
0.000000 -0.008148 0.304952 -0.566663 -0.250661 -0.784896 80 57 39 255 1
0.000428 -0.008127 0.304147 -0.544626 -0.260360 -0.797242 79 55 36 255 1
0.000854 -0.008112 0.303583 -0.532265 -0.262581 -0.804826 79 54 36 255 1
0.001278 -0.008097 0.303020 -0.508170 -0.280886 -0.814166 78 52 35 255 1
0.001702 -0.008082 0.302472 -0.488279 -0.294421 -0.821523 78 53 35 255 1
0.002123 -0.008068 0.301941 -0.459671 -0.316237 -0.829878 77 52 36 255 1
0.002545 -0.008059 0.301586 -0.427377 -0.318275 -0.846197 77 52 37 255 1
0.002965 -0.008049 0.301232 -0.398790 -0.327889 -0.856420 77 54 37 255 1
0.003385 -0.008040 0.300878 -0.366528 -0.332352 -0.869022 76 52 36 255 1
0.003804 -0.008030 0.300523 -0.322425 -0.337235 -0.884486 78 52 36 255 1
0.004222 -0.008021 0.300185 -0.270614 -0.347332 -0.897847 79 53 36 255 1
0.004640 -0.008014 0.299928 -0.247143 -0.331528 -0.910500 80 54 37 255 1
0.005057 -0.008007 0.299670 -0.207625 -0.314755 -0.926186 80 53 37 255 1
0.005474 -0.008001 0.299428 -0.178778 -0.297893 -0.937709 83 57 40 255 1
0.005890 -0.007994 0.299171 -0.156078 -0.268800 -0.950466 89 63 43 255 1
0.006306 -0.007988 0.298929 -0.117601 -0.249865 -0.961113 91 65 44 255 1
0.006721 -0.007981 0.298687 -0.097200 -0.236526 -0.966751 91 64 45 255 1
0.007139 -0.007979 0.298623 -0.097055 -0.188088 -0.977345 92 65 45 255 1
0.007557 -0.007977 0.298543 -0.091968 -0.152019 -0.984090 95 69 48 255 1
0.007975 -0.007975 0.298478 -0.098988 -0.117362 -0.988143 97 72 50 255 1
0.008393 -0.007973 0.298398 -0.114263 -0.079935 -0.990230 101 75 53 255 1
0.008811 -0.007972 0.298333 -0.121945 -0.049777 -0.991288 104 77 55 255 1
0.009228 -0.007969 0.298253 -0.134712 -0.024144 -0.990591 101 75 53 255 1
0.009648 -0.007970 0.298269 -0.128992 -0.010745 -0.991587 99 74 52 255 1
0.010068 -0.007970 0.298285 -0.119243 -0.000102 -0.992865 101 76 53 255 1
0.010489 -0.007972 0.298333 -0.103428 0.005591 -0.994621 101 75 53 255 1
0.010911 -0.007973 0.298398 -0.081050 0.011781 -0.996640 102 76 53 255 1
0.011331 -0.007974 0.298414 -0.064275 0.014602 -0.997825 105 78 55 255 1
0.011752 -0.007975 0.298446 -0.045194 0.018902 -0.998799 106 77 54 255 1
0.012173 -0.007975 0.298478 -0.028415 0.022186 -0.999350 108 79 54 255 1
0.012595 -0.007977 0.298526 -0.009431 0.026892 -0.999594 106 77 53 255 1
0.013018 -0.007979 0.298607 0.007784 0.030749 -0.999497 104 75 52 255 1
0.013442 -0.007981 0.298687 0.028689 0.036275 -0.998930 101 73 50 255 1
0.013866 -0.007983 0.298768 0.048787 0.041417 -0.997950 101 73 51 255 1
0.014287 -0.007984 0.298800 0.070109 0.047751 -0.996396 100 73 51 255 1
0.014709 -0.007985 0.298832 0.089891 0.055706 -0.994393 98 71 49 255 1
0.015131 -0.007986 0.298865 0.104616 0.061363 -0.992618 97 69 48 255 1
0.015551 -0.007986 0.298865 0.125584 0.067466 -0.989786 96 68 47 255 1
0.015972 -0.007986 0.298865 0.147491 0.072513 -0.986402 94 67 45 255 1
0.016393 -0.007986 0.298881 0.172426 0.077686 -0.981954 92 64 43 255 1
0.016814 -0.007987 0.298897 0.197904 0.080634 -0.976899 90 62 41 255 1
0.017236 -0.007988 0.298929 0.223140 0.085681 -0.971014 89 59 39 255 1
0.017661 -0.007990 0.299010 0.251045 0.090853 -0.963702 89 58 38 255 1
0.018086 -0.007991 0.299074 0.279649 0.094987 -0.955392 87 57 36 255 1
0.018514 -0.007995 0.299203 0.309087 0.100416 -0.945718 85 56 36 255 1
0.018944 -0.007999 0.299348 0.336544 0.105674 -0.935720 85 56 35 255 1
0.019377 -0.008003 0.299525 0.367719 0.112258 -0.923136 87 56 36 255 1
0.019816 -0.008011 0.299799 0.402448 0.115953 -0.908069 89 57 37 255 1
0.020255 -0.008018 0.300056 0.431356 0.122839 -0.893780 91 59 38 255 1
0.020695 -0.008025 0.300314 0.459117 0.128986 -0.878962 94 61 40 255 1
0.021136 -0.008032 0.300588 0.483003 0.132186 -0.865584 96 63 41 255 1
0.021581 -0.008040 0.300894 0.503341 0.138790 -0.852869 97 63 41 255 1
0.022024 -0.008047 0.301168 0.515663 0.142167 -0.844914 98 65 43 255 1
0.022468 -0.008055 0.301441 0.520689 0.143250 -0.841643 98 66 44 255 1
0.022917 -0.008063 0.301763 0.517363 0.141284 -0.844023 100 68 45 255 1
0.023372 -0.008074 0.302166 0.508750 0.138300 -0.849733 99 68 45 255 1
0.023827 -0.008084 0.302553 0.491696 0.132864 -0.860571 101 71 48 255 1
0.024287 -0.008096 0.302971 0.473695 0.125535 -0.871696 103 73 49 255 1
0.024749 -0.008108 0.303422 0.459525 0.120906 -0.879897 105 74 50 255 1
0.025210 -0.008118 0.303825 0.440719 0.118969 -0.889727 107 76 51 255 1
0.025665 -0.008127 0.304163 0.424117 0.112077 -0.898645 107 75 51 255 1
0.026121 -0.008136 0.304485 0.406171 0.109156 -0.907254 107 76 52 255 1
0.026566 -0.008141 0.304678 0.380689 0.098645 -0.919427 109 78 54 255 1
0.027007 -0.008145 0.304823 0.342106 0.084708 -0.935836 110 80 56 255 1
0.027439 -0.008146 0.304855 0.310346 0.075872 -0.947591 112 82 59 255 1
0.027876 -0.008148 0.304952 0.269149 0.063993 -0.960970 111 82 60 255 1
0.028308 -0.008149 0.304984 0.220085 0.055623 -0.973893 113 84 62 255 1
0.028729 -0.008147 0.304904 0.160383 0.042346 -0.986146 113 85 62 255 1
0.029160 -0.008148 0.304920 0.089056 0.023859 -0.995741 114 87 64 255 1
0.029585 -0.008147 0.304888 0.006882 -0.002019 -0.999974 116 89 67 255 1
0.029997 -0.008142 0.304711 -0.102615 -0.036517 -0.994051 117 90 68 255 1
0.030416 -0.008139 0.304614 -0.215037 -0.099073 -0.971568 118 91 68 255 1
0.030828 -0.008135 0.304453 -0.341589 -0.192308 -0.919964 118 91 67 255 1
0.031221 -0.008126 0.304115 -0.429498 -0.246045 -0.868904 117 89 66 255 1
0.031604 -0.008114 0.303680 -0.497091 -0.347749 -0.794966 116 87 64 255 1
0.031980 -0.008102 0.303197 -0.548417 -0.411420 -0.727992 116 86 62 255 1
0.032342 -0.008086 0.302601 -0.570090 -0.495309 -0.655489 115 85 61 255 4
0.032709 -0.008071 0.302053 -0.579675 -0.542052 -0.608405 114 85 61 255 4
0.033050 -0.008051 0.301296 -0.583942 -0.588445 -0.559236 117 88 64 255 4
0.033363 -0.008024 0.300298 -0.582640 -0.615908 -0.530272 118 90 66 255 4
0.033650 -0.007992 0.299090 -0.588958 -0.623310 -0.514406 121 94 70 255 4
0.033936 -0.007960 0.297914 -0.596526 -0.619116 -0.510737 121 94 70 255 4
0.034240 -0.007934 0.296916 -0.589147 -0.612221 -0.527343 121 95 71 255 4
0.034584 -0.007917 0.296288 -0.563166 -0.607752 -0.559895 119 94 70 255 4
0.034959 -0.007907 0.295934 -0.538024 -0.605311 -0.586625 118 94 70 255 4
0.035335 -0.007898 0.295595 -0.512887 -0.599637 -0.614315 122 97 74 255 4
0.035714 -0.007890 0.295289 -0.488380 -0.590704 -0.642303 125 100 76 255 4
0.036094 -0.007883 0.295000 -0.463389 -0.579771 -0.670176 126 101 77 255 4
0.036473 -0.007875 0.294710 -0.439238 -0.566672 -0.697103 127 103 79 255 4
0.036857 -0.007868 0.294468 -0.425723 -0.558803 -0.711688 129 105 81 255 4
0.037251 -0.007864 0.294307 -0.411141 -0.549860 -0.727060 129 106 81 255 4
0.037642 -0.007859 0.294130 -0.398660 -0.540060 -0.741219 130 107 82 255 4
0.038030 -0.007854 0.293937 -0.388022 -0.530864 -0.753407 129 106 81 255 4
0.038416 -0.007849 0.293727 -0.377763 -0.519314 -0.766556 129 106 81 255 4
0.038802 -0.007843 0.293518 -0.369720 -0.509134 -0.777232 129 106 81 255 4
0.039189 -0.007838 0.293325 -0.360838 -0.502642 -0.785587 128 106 80 255 4
0.039573 -0.007832 0.293115 -0.354443 -0.490448 -0.796135 130 106 81 255 4
0.039957 -0.007827 0.292906 -0.346502 -0.478086 -0.807075 129 106 81 255 4
0.040340 -0.007821 0.292697 -0.340126 -0.466051 -0.816768 128 104 79 255 4
0.040724 -0.007816 0.292503 -0.334084 -0.453412 -0.826320 127 104 79 255 4
0.041104 -0.007810 0.292278 -0.327134 -0.440608 -0.835971 126 103 79 255 4
0.041479 -0.007803 0.292020 -0.320024 -0.428965 -0.844733 125 102 78 255 4
0.041855 -0.007796 0.291779 -0.313922 -0.418455 -0.852261 124 102 77 255 4
0.042228 -0.007790 0.291521 -0.306881 -0.404932 -0.861310 123 101 76 255 4
0.042605 -0.007784 0.291296 -0.298275 -0.394177 -0.869285 122 100 76 255 4
0.042979 -0.007777 0.291054 -0.287638 -0.382478 -0.878052 121 99 75 255 4
0.043364 -0.007773 0.290893 -0.277646 -0.375072 -0.884440 120 98 74 255 4
0.043756 -0.007770 0.290780 -0.267667 -0.367419 -0.890706 118 97 73 255 4
0.044150 -0.007767 0.290684 -0.255752 -0.363837 -0.895664 118 97 73 255 4
0.044544 -0.007765 0.290587 -0.243408 -0.357689 -0.901560 118 96 73 255 4
0.044936 -0.007762 0.290474 -0.231649 -0.353994 -0.906105 119 96 73 255 4
0.045329 -0.007759 0.290378 -0.219509 -0.350729 -0.910387 120 97 74 255 4
0.045725 -0.007757 0.290297 -0.205815 -0.346443 -0.915214 122 97 74 255 4
0.046120 -0.007755 0.290217 -0.190635 -0.345319 -0.918920 121 96 74 255 4
0.046513 -0.007752 0.290120 -0.177847 -0.346369 -0.921086 120 95 74 255 4
0.046908 -0.007750 0.290039 -0.165221 -0.344061 -0.924297 120 96 74 255 4
0.047302 -0.007748 0.289959 -0.148814 -0.347175 -0.925918 119 96 74 255 4
0.047700 -0.007746 0.289895 -0.135465 -0.347963 -0.927670 119 95 73 255 4
0.048097 -0.007744 0.289830 -0.120120 -0.352004 -0.928259 119 95 72 255 4
0.048493 -0.007743 0.289766 -0.107064 -0.354654 -0.928847 119 96 72 255 4
0.048890 -0.007741 0.289701 -0.091794 -0.358864 -0.928865 120 96 71 255 4
0.049292 -0.007740 0.289669 -0.077142 -0.365998 -0.927413 119 95 70 255 4
0.049708 -0.007741 0.289717 -0.062904 -0.373274 -0.925586 119 95 70 255 4
0.050132 -0.007744 0.289814 -0.046819 -0.382180 -0.922901 119 95 69 255 4
0.050556 -0.007747 0.289911 -0.029331 -0.391866 -0.919555 121 95 70 255 4
0.050970 -0.007747 0.289943 -0.016070 -0.400439 -0.916182 121 95 70 255 4
0.051383 -0.007748 0.289975 -0.000323 -0.407727 -0.913104 122 96 71 255 4
0.051797 -0.007749 0.290007 0.017110 -0.416414 -0.909014 121 96 71 255 4
0.052210 -0.007750 0.290039 0.033525 -0.424135 -0.904978 122 98 72 255 4
0.052624 -0.007751 0.290072 0.047225 -0.431027 -0.901103 123 99 74 255 4
0.053041 -0.007752 0.290120 0.063855 -0.441938 -0.894770 125 100 75 255 4
0.053455 -0.007753 0.290152 0.077471 -0.448840 -0.890248 126 101 75 255 4
0.053878 -0.007755 0.290233 0.092680 -0.459633 -0.883260 126 101 75 255 4
0.054304 -0.007758 0.290329 0.105673 -0.469729 -0.876463 129 102 77 255 4
0.054731 -0.007760 0.290426 0.115939 -0.478084 -0.870628 129 103 78 255 4
0.055154 -0.007762 0.290506 0.125904 -0.486562 -0.864526 128 103 77 255 4
0.055578 -0.007765 0.290587 0.133050 -0.493497 -0.859510 129 103 78 255 4
0.055999 -0.007766 0.290651 0.139741 -0.503053 -0.852883 128 103 78 255 4
0.056417 -0.007768 0.290700 0.145125 -0.511512 -0.846933 130 104 78 255 4
0.056836 -0.007769 0.290748 0.147698 -0.517616 -0.842769 130 104 78 255 4
0.057283 -0.007774 0.290941 0.149683 -0.526788 -0.836713 131 106 80 255 4
0.057743 -0.007781 0.291199 0.149231 -0.540039 -0.828304 130 106 79 255 4
0.058204 -0.007788 0.291457 0.149264 -0.553004 -0.819699 131 107 81 255 4
0.058666 -0.007795 0.291714 0.146522 -0.566710 -0.810784 131 107 82 255 4
0.059131 -0.007802 0.291988 0.142242 -0.577726 -0.803741 132 109 83 255 4
0.059575 -0.007806 0.292149 0.136958 -0.585947 -0.798692 133 109 84 255 4
0.059982 -0.007806 0.292133 0.128009 -0.589242 -0.797752 133 109 84 255 4
0.060390 -0.007805 0.292117 0.120254 -0.591678 -0.797155 134 110 85 255 4
0.060801 -0.007805 0.292117 0.110284 -0.596300 -0.795150 134 110 85 255 4
0.061218 -0.007806 0.292149 0.099013 -0.602009 -0.792327 133 109 85 255 4
0.061636 -0.007807 0.292181 0.085591 -0.606802 -0.790232 132 109 84 255 4
0.062054 -0.007808 0.292214 0.071726 -0.611167 -0.788245 132 109 85 255 4
0.062464 -0.007808 0.292214 0.059744 -0.613183 -0.787678 133 110 84 255 4
0.062872 -0.007808 0.292197 0.046278 -0.617040 -0.785570 134 110 85 255 4
0.063276 -0.007807 0.292165 0.031827 -0.620049 -0.783917 134 110 84 255 4
0.063683 -0.007806 0.292149 0.017025 -0.622369 -0.782539 134 109 84 255 4
0.064087 -0.007805 0.292117 0.002833 -0.626034 -0.779791 134 109 84 255 4
0.064494 -0.007805 0.292101 -0.009108 -0.628395 -0.777841 134 110 84 255 4
0.064898 -0.007804 0.292069 -0.021325 -0.630477 -0.775915 133 110 84 255 4
0.065312 -0.007805 0.292085 -0.034050 -0.633393 -0.773081 134 111 85 255 4
0.065730 -0.007805 0.292117 -0.045189 -0.636594 -0.769874 134 111 85 255 4
0.066145 -0.007806 0.292133 -0.054054 -0.641622 -0.765114 136 112 85 255 4
0.066563 -0.007807 0.292165 -0.061372 -0.647061 -0.759964 136 111 84 255 4
0.066978 -0.007807 0.292181 -0.068533 -0.653833 -0.753529 137 111 85 255 4
0.067385 -0.007807 0.292165 -0.076241 -0.657524 -0.749566 137 112 84 255 4
0.067781 -0.007805 0.292101 -0.082946 -0.661504 -0.745341 136 111 84 255 4
0.068176 -0.007803 0.292036 -0.089735 -0.664206 -0.742145 136 111 84 255 4
0.068572 -0.007802 0.291972 -0.094904 -0.665266 -0.740550 136 111 85 255 4
0.068967 -0.007800 0.291908 -0.098318 -0.666992 -0.738550 137 111 84 255 4
0.069363 -0.007798 0.291843 -0.101778 -0.669711 -0.735614 136 110 84 255 4
0.069758 -0.007796 0.291779 -0.104216 -0.673193 -0.732086 136 109 83 255 4
0.070152 -0.007795 0.291714 -0.106446 -0.676747 -0.728480 137 111 84 255 4
0.070547 -0.007793 0.291650 -0.107370 -0.680597 -0.724748 137 111 84 255 4
0.070942 -0.007791 0.291585 -0.107704 -0.683450 -0.722009 135 109 83 255 4
0.071336 -0.007790 0.291521 -0.106309 -0.687737 -0.718134 135 108 82 255 4
0.071726 -0.007787 0.291441 -0.105110 -0.686694 -0.719308 134 108 83 255 4
0.072120 -0.007786 0.291376 -0.102187 -0.689243 -0.717288 132 107 82 255 4
0.072510 -0.007784 0.291296 -0.098202 -0.693404 -0.713825 132 107 82 255 4
0.072895 -0.007781 0.291199 -0.094623 -0.695620 -0.712151 132 106 81 255 4
0.073284 -0.007779 0.291118 -0.088548 -0.698509 -0.710102 131 104 80 255 4
0.073669 -0.007776 0.291022 -0.081387 -0.701029 -0.708473 132 104 79 255 4
0.074058 -0.007774 0.290941 -0.073192 -0.702167 -0.708240 130 103 78 255 4
0.074443 -0.007771 0.290845 -0.063915 -0.704110 -0.707209 130 103 79 255 4
0.074831 -0.007769 0.290764 -0.054224 -0.704981 -0.707151 129 103 79 255 4
0.075219 -0.007767 0.290684 -0.042742 -0.705966 -0.706955 129 103 79 255 4
0.075603 -0.007765 0.290587 -0.032980 -0.706615 -0.706829 129 103 78 255 4
0.075990 -0.007762 0.290506 -0.022443 -0.707563 -0.706294 130 103 78 255 4
0.076390 -0.007762 0.290474 -0.011553 -0.708355 -0.705762 129 102 77 255 4
0.076795 -0.007761 0.290458 -0.000024 -0.711613 -0.702572 131 102 78 255 4
0.077203 -0.007761 0.290458 0.011654 -0.715364 -0.698655 130 103 78 255 4
0.077607 -0.007761 0.290442 0.021969 -0.716887 -0.696843 129 102 77 255 4
0.078029 -0.007762 0.290490 0.033576 -0.719937 -0.693227 129 103 78 255 4
0.078455 -0.007764 0.290555 0.042615 -0.721251 -0.691362 128 102 78 255 4
0.078876 -0.007765 0.290603 0.053154 -0.723133 -0.688661 130 102 79 255 4
0.079298 -0.007766 0.290651 0.061640 -0.723838 -0.687211 130 103 79 255 4
0.079729 -0.007768 0.290732 0.070037 -0.724515 -0.685692 130 102 78 255 4
0.080160 -0.007771 0.290812 0.080128 -0.727415 -0.681503 128 100 77 255 4
0.080591 -0.007773 0.290893 0.093725 -0.732819 -0.673938 130 100 78 255 4
0.081059 -0.007778 0.291102 0.106185 -0.737973 -0.666424 131 101 78 255 4
0.081545 -0.007786 0.291376 0.119671 -0.744775 -0.656498 129 100 77 255 4
0.082036 -0.007793 0.291666 0.134694 -0.752250 -0.644963 128 100 77 255 4
0.082524 -0.007801 0.291940 0.151881 -0.761252 -0.630419 131 104 80 255 4
0.083026 -0.007809 0.292262 0.168232 -0.772199 -0.612705 129 104 80 255 4
0.083547 -0.007820 0.292648 0.182217 -0.779306 -0.599566 127 102 79 255 4
0.084056 -0.007829 0.292987 0.199283 -0.788317 -0.582102 133 105 81 255 4
0.084556 -0.007837 0.293293 0.217395 -0.793984 -0.567740 139 108 81 255 4
0.085062 -0.007845 0.293615 0.227258 -0.798472 -0.557491 124 91 66 255 4
0.085873 -0.007882 0.294983 0.244661 -0.816079 -0.523600 107 83 62 255 4
0.085666 -0.007825 0.292858 0.235337 -0.785582 -0.572256 121 117 100 255 3
0.086087 -0.007826 0.292890 0.240086 -0.783814 -0.572707 138 141 128 255 3
0.086533 -0.007829 0.293003 0.251900 -0.786352 -0.564090 138 138 124 255 3
0.086978 -0.007832 0.293115 0.262911 -0.786408 -0.558963 133 134 121 255 3
0.087520 -0.007844 0.293550 0.276187 -0.788570 -0.549435 124 125 112 255 3
0.088097 -0.007858 0.294098 0.280599 -0.792016 -0.542194 122 122 110 255 3
0.089441 -0.007941 0.297190 0.258621 -0.802235 -0.538084 125 125 112 255 3
0.089888 -0.007944 0.297286 0.255772 -0.800262 -0.542366 120 120 107 255 3
0.090331 -0.007946 0.297367 0.253778 -0.798869 -0.545348 124 124 111 255 3
0.090774 -0.007948 0.297447 0.252608 -0.796810 -0.548892 121 121 108 255 3
0.091221 -0.007950 0.297544 0.252424 -0.794156 -0.552810 117 118 106 255 3
0.091665 -0.007953 0.297625 0.250580 -0.793023 -0.555269 122 123 110 255 3
0.092298 -0.007971 0.298317 0.235344 -0.790904 -0.564876 115 116 104 255 3
0.093012 -0.007997 0.299267 0.218999 -0.785266 -0.579134 115 113 100 255 3
0.093473 -0.008000 0.299396 0.213337 -0.781649 -0.586099 115 98 80 255 3
0.094501 -0.008052 0.301329 0.176961 -0.760301 -0.625002 113 83 62 255 3
0.095041 -0.008062 0.301699 0.168674 -0.749534 -0.640115 112 81 59 255 3
0.095577 -0.008071 0.302053 0.155903 -0.737559 -0.657039 110 78 56 255 3
0.096110 -0.008080 0.302391 0.147299 -0.724510 -0.673341 108 76 53 255 3
0.096741 -0.008097 0.303036 0.133610 -0.695119 -0.706370 107 73 49 255 3
0.097337 -0.008111 0.303567 0.105941 -0.672163 -0.732785 106 72 47 255 3
0.098080 -0.008138 0.304549 0.105852 -0.622919 -0.775091 99 72 50 255 3
0.099155 -0.008191 0.306546 0.110681 -0.581875 -0.805711 91 69 52 255 3
0.115145 -0.009471 0.354441 -0.296814 0.954038 -0.041382 79 75 60 255 3
-0.001304 -0.007825 0.309123 -0.636745 -0.175637 -0.750804 70 60 45 255 1
-0.000864 -0.007773 0.307078 -0.614909 -0.199920 -0.762836 75 55 39 255 1
-0.000430 -0.007747 0.306047 -0.592958 -0.213819 -0.776326 76 55 38 255 1
0.000000 -0.007724 0.305113 -0.568335 -0.230184 -0.789944 80 56 38 255 1
0.000428 -0.007700 0.304179 -0.533028 -0.261404 -0.804704 80 55 36 255 1
0.000854 -0.007686 0.303615 -0.516009 -0.283101 -0.808448 80 54 35 255 1
0.001279 -0.007672 0.303068 -0.490128 -0.296655 -0.819616 78 52 34 255 1
0.001702 -0.007658 0.302504 -0.460720 -0.328321 -0.824586 77 51 34 255 1
0.002123 -0.007644 0.301957 -0.414868 -0.362009 -0.834766 76 51 35 255 1
0.002545 -0.007634 0.301554 -0.377489 -0.372946 -0.847593 75 50 36 255 1
0.002965 -0.007625 0.301200 -0.351870 -0.380149 -0.855380 74 51 36 255 1
0.003385 -0.007616 0.300845 -0.313654 -0.395927 -0.863054 75 51 36 255 1
0.003804 -0.007608 0.300556 -0.275521 -0.385458 -0.880630 76 50 35 255 1
0.004223 -0.007601 0.300266 -0.228480 -0.377888 -0.897217 77 52 36 255 1
0.004641 -0.007594 0.299976 -0.202045 -0.356932 -0.912018 78 52 36 255 1
0.005058 -0.007587 0.299734 -0.169691 -0.339812 -0.925058 81 54 38 255 1
0.005475 -0.007581 0.299477 -0.138420 -0.327752 -0.934569 84 58 40 255 1
0.005892 -0.007575 0.299235 -0.113565 -0.295520 -0.948563 90 64 44 255 1
0.006307 -0.007569 0.298993 -0.078914 -0.268088 -0.960157 88 62 43 255 1
0.006722 -0.007563 0.298752 -0.063678 -0.237902 -0.969199 89 61 43 255 1
0.007139 -0.007559 0.298607 -0.054802 -0.198513 -0.978565 90 63 44 255 1
0.007557 -0.007557 0.298526 -0.054681 -0.163244 -0.985069 94 67 47 255 1
0.007975 -0.007555 0.298462 -0.066361 -0.116810 -0.990935 97 71 49 255 1
0.008392 -0.007553 0.298382 -0.073840 -0.086442 -0.993517 99 73 51 255 1
0.008810 -0.007552 0.298317 -0.099162 -0.045315 -0.994039 101 74 53 255 1
0.009227 -0.007550 0.298237 -0.112013 -0.015931 -0.993579 102 75 54 255 1
0.009646 -0.007549 0.298220 -0.117561 0.006862 -0.993042 102 76 54 255 1
0.010067 -0.007550 0.298269 -0.106476 0.018866 -0.994136 103 77 54 255 1
0.010489 -0.007552 0.298333 -0.098259 0.027952 -0.994768 101 75 53 255 1
0.010910 -0.007553 0.298382 -0.077184 0.034113 -0.996433 103 77 54 255 1
0.011331 -0.007554 0.298414 -0.058099 0.042166 -0.997420 103 76 53 255 1
0.011751 -0.007554 0.298430 -0.042096 0.046592 -0.998027 103 76 52 255 1
0.012172 -0.007555 0.298462 -0.025992 0.053399 -0.998235 103 75 51 255 1
0.012596 -0.007557 0.298543 -0.005508 0.059490 -0.998214 103 75 52 255 1
0.013019 -0.007559 0.298623 0.012859 0.064848 -0.997812 103 74 51 255 1
0.013442 -0.007561 0.298687 0.033857 0.070722 -0.996921 102 73 50 255 1
0.013866 -0.007563 0.298768 0.055838 0.076900 -0.995474 101 73 51 255 1
0.014288 -0.007564 0.298816 0.076405 0.082761 -0.993636 99 73 50 255 1
0.014710 -0.007565 0.298849 0.093735 0.088026 -0.991698 98 71 49 255 1
0.015132 -0.007566 0.298881 0.110493 0.095544 -0.989274 97 70 48 255 1
0.015554 -0.007567 0.298913 0.131977 0.101955 -0.985996 96 69 47 255 1
0.015976 -0.007568 0.298945 0.155120 0.105737 -0.982221 94 67 46 255 1
0.016399 -0.007569 0.298993 0.179967 0.112057 -0.977269 93 66 45 255 1
0.016821 -0.007570 0.299026 0.204299 0.115092 -0.972119 92 64 43 255 1
0.017246 -0.007572 0.299106 0.230360 0.116809 -0.966069 92 63 42 255 1
0.017671 -0.007573 0.299171 0.261023 0.123493 -0.957401 92 63 42 255 1
0.018096 -0.007575 0.299251 0.288953 0.127585 -0.948804 93 64 43 255 1
0.018526 -0.007579 0.299396 0.319212 0.133199 -0.938276 93 63 43 255 1
0.018955 -0.007582 0.299525 0.346154 0.138056 -0.927964 94 64 42 255 1
0.019387 -0.007586 0.299686 0.375096 0.143871 -0.915753 95 63 42 255 1
0.019826 -0.007593 0.299944 0.408995 0.149107 -0.900272 96 63 42 255 1
0.020264 -0.007599 0.300185 0.438162 0.154865 -0.885455 96 63 42 255 1
0.020703 -0.007605 0.300427 0.464698 0.160254 -0.870847 97 64 42 255 1
0.021145 -0.007612 0.300717 0.486229 0.164484 -0.858211 97 64 42 255 1
0.021586 -0.007618 0.300958 0.504261 0.170779 -0.846496 97 64 42 255 1
0.022025 -0.007624 0.301184 0.514029 0.172926 -0.840161 97 65 42 255 1
0.022473 -0.007632 0.301506 0.519216 0.173094 -0.836931 98 66 43 255 1
0.022921 -0.007640 0.301828 0.513627 0.169128 -0.841179 99 67 45 255 1
0.023377 -0.007651 0.302230 0.501801 0.166499 -0.848808 99 69 46 255 1
0.023833 -0.007660 0.302617 0.483715 0.165160 -0.859501 99 70 47 255 1
0.024294 -0.007672 0.303068 0.468661 0.157385 -0.869245 102 73 49 255 1
0.024757 -0.007683 0.303519 0.452121 0.151811 -0.878943 104 74 50 255 1
0.025219 -0.007694 0.303938 0.434861 0.145323 -0.888694 106 75 51 255 1
0.025675 -0.007702 0.304276 0.422637 0.141187 -0.895234 106 74 50 255 1
0.026130 -0.007711 0.304598 0.403495 0.124610 -0.906457 107 76 52 255 1
0.026574 -0.007715 0.304775 0.377549 0.116701 -0.918606 108 77 53 255 1
0.027017 -0.007719 0.304936 0.340535 0.102888 -0.934586 109 79 56 255 1
0.027450 -0.007720 0.304984 0.309732 0.091948 -0.946368 110 80 57 255 1
0.027879 -0.007720 0.304984 0.269523 0.083113 -0.959401 109 80 58 255 1
0.028314 -0.007722 0.305049 0.217069 0.061851 -0.974195 109 81 59 255 1
0.028735 -0.007720 0.304968 0.158729 0.046743 -0.986215 110 84 61 255 1
0.029154 -0.007717 0.304855 0.073406 0.017439 -0.997150 111 85 63 255 1
0.029581 -0.007717 0.304839 -0.005379 -0.008200 -0.999952 112 86 65 255 1
0.029997 -0.007713 0.304711 -0.137049 -0.060989 -0.988685 114 87 65 255 1
0.030406 -0.007709 0.304517 -0.257078 -0.147837 -0.955016 115 89 66 255 1
0.030811 -0.007703 0.304292 -0.357669 -0.209482 -0.910050 114 88 64 255 1
0.031213 -0.007696 0.304034 -0.452361 -0.306051 -0.837677 115 87 64 255 1
0.031590 -0.007684 0.303551 -0.524272 -0.382553 -0.760784 114 85 62 255 1
0.031963 -0.007671 0.303036 -0.566032 -0.460544 -0.683744 115 85 61 255 4
0.032329 -0.007657 0.302472 -0.577798 -0.523911 -0.625833 115 84 60 255 4
0.032684 -0.007640 0.301828 -0.589507 -0.562096 -0.580112 114 84 60 255 4
0.033001 -0.007616 0.300845 -0.592151 -0.596703 -0.541574 118 88 64 255 4
0.033313 -0.007590 0.299847 -0.591692 -0.616375 -0.519598 118 90 66 255 4
0.033575 -0.007554 0.298430 -0.600628 -0.617215 -0.508224 124 96 71 255 4
0.033834 -0.007519 0.297013 -0.597817 -0.606984 -0.523626 122 95 71 255 4
0.034164 -0.007499 0.296256 -0.571224 -0.603684 -0.556119 120 94 71 255 4
0.034528 -0.007488 0.295805 -0.543250 -0.596640 -0.590679 121 95 72 255 4
0.034904 -0.007479 0.295467 -0.513658 -0.588444 -0.624411 122 97 73 255 4
0.035279 -0.007471 0.295128 -0.486249 -0.577582 -0.655714 125 99 76 255 4
0.035659 -0.007464 0.294839 -0.459052 -0.568174 -0.682971 126 102 78 255 4
0.036038 -0.007456 0.294549 -0.443269 -0.557632 -0.701826 127 103 78 255 4
0.036421 -0.007450 0.294291 -0.423552 -0.544430 -0.724016 129 104 80 255 4
0.036814 -0.007446 0.294130 -0.405617 -0.533956 -0.741866 129 105 80 255 4
0.037206 -0.007441 0.293953 -0.391593 -0.524012 -0.756350 130 107 81 255 4
0.037596 -0.007437 0.293776 -0.384372 -0.515548 -0.765813 130 107 81 255 4
0.037985 -0.007432 0.293582 -0.376696 -0.503205 -0.777744 128 105 80 255 4
0.038372 -0.007427 0.293389 -0.364207 -0.490988 -0.791381 129 106 81 255 4
0.038757 -0.007422 0.293180 -0.360327 -0.482121 -0.798576 128 105 79 255 4
0.039144 -0.007417 0.292987 -0.352502 -0.471977 -0.808072 129 106 81 255 4
0.039536 -0.007413 0.292842 -0.345079 -0.460247 -0.817981 127 106 80 255 4
0.039924 -0.007409 0.292664 -0.339580 -0.450656 -0.825587 126 105 80 255 4
0.040309 -0.007404 0.292471 -0.332838 -0.436051 -0.836109 126 104 79 255 4
0.040693 -0.007399 0.292278 -0.325912 -0.423566 -0.845206 125 104 79 255 4
0.041075 -0.007393 0.292069 -0.320425 -0.410596 -0.853662 125 103 79 255 4
0.041449 -0.007387 0.291811 -0.314236 -0.397364 -0.862182 124 103 79 255 4
0.041822 -0.007380 0.291553 -0.307721 -0.382257 -0.871314 123 101 77 255 4
0.042195 -0.007374 0.291296 -0.300199 -0.367568 -0.880213 121 100 75 255 4
0.042569 -0.007368 0.291054 -0.292365 -0.355907 -0.887611 121 99 75 255 4
0.042955 -0.007364 0.290893 -0.284038 -0.346298 -0.894092 119 97 73 255 4
0.043342 -0.007360 0.290748 -0.273829 -0.339412 -0.899899 118 96 73 255 4
0.043734 -0.007357 0.290635 -0.264358 -0.333376 -0.904973 118 96 72 255 4
0.044126 -0.007354 0.290523 -0.253395 -0.327212 -0.910343 118 96 72 255 4
0.044517 -0.007351 0.290410 -0.242436 -0.322813 -0.914886 118 95 72 255 4
0.044911 -0.007349 0.290313 -0.230243 -0.318415 -0.919565 117 94 71 255 4
0.045301 -0.007346 0.290200 -0.218448 -0.311913 -0.924657 119 94 72 255 4
0.045694 -0.007344 0.290104 -0.204956 -0.311799 -0.927779 119 94 72 255 4
0.046089 -0.007342 0.290023 -0.192137 -0.309837 -0.931174 119 94 72 255 4
0.046484 -0.007340 0.289943 -0.179597 -0.310390 -0.933490 118 94 72 255 4
0.046879 -0.007338 0.289862 -0.165560 -0.309146 -0.936493 117 93 71 255 4
0.047274 -0.007336 0.289782 -0.153345 -0.310031 -0.938278 118 94 71 255 4
0.047673 -0.007334 0.289733 -0.139546 -0.311054 -0.940092 117 92 69 255 4
0.048073 -0.007333 0.289685 -0.124699 -0.316580 -0.940334 117 92 69 255 4
0.048469 -0.007331 0.289621 -0.112781 -0.319137 -0.940974 119 94 70 255 4
0.048868 -0.007330 0.289572 -0.098882 -0.320929 -0.941927 118 93 69 255 4
0.049281 -0.007331 0.289605 -0.084344 -0.330583 -0.940000 116 93 68 255 4
0.049688 -0.007331 0.289605 -0.071599 -0.333448 -0.940046 116 92 67 255 4
0.050101 -0.007332 0.289637 -0.056511 -0.342514 -0.937812 117 93 68 255 4
0.050523 -0.007334 0.289717 -0.041884 -0.352188 -0.934992 118 93 67 255 4
0.050936 -0.007335 0.289750 -0.026604 -0.361720 -0.931907 119 93 68 255 4
0.051349 -0.007336 0.289782 -0.012625 -0.367544 -0.929920 119 95 70 255 4
0.051762 -0.007336 0.289814 0.004646 -0.378680 -0.925516 121 96 71 255 4
0.052176 -0.007337 0.289846 0.021589 -0.389675 -0.920699 121 97 72 255 4
0.052589 -0.007338 0.289878 0.036299 -0.398704 -0.916361 123 99 74 255 4
0.053005 -0.007339 0.289927 0.052063 -0.407946 -0.911521 124 100 75 255 4
0.053419 -0.007340 0.289959 0.067313 -0.417941 -0.905977 124 99 74 255 4
0.053836 -0.007341 0.290007 0.081603 -0.425511 -0.901267 126 101 76 255 4
0.054253 -0.007342 0.290056 0.095010 -0.434248 -0.895769 127 101 76 255 4
0.054670 -0.007344 0.290104 0.107017 -0.442708 -0.890257 126 101 76 255 4
0.055084 -0.007345 0.290136 0.116435 -0.450275 -0.885266 126 101 77 255 4
0.055501 -0.007346 0.290184 0.123858 -0.457674 -0.880451 125 101 76 255 4
0.055919 -0.007347 0.290233 0.131539 -0.466190 -0.874851 126 102 77 255 4
0.056336 -0.007348 0.290281 0.134992 -0.472605 -0.870874 128 102 77 255 4
0.056754 -0.007349 0.290329 0.138744 -0.480432 -0.865988 128 102 77 255 4
0.057206 -0.007355 0.290555 0.142961 -0.494473 -0.857355 129 103 78 255 4
0.057666 -0.007362 0.290812 0.143929 -0.506052 -0.850409 129 105 79 255 4
0.058127 -0.007368 0.291070 0.145366 -0.522695 -0.840035 130 106 81 255 4
0.058588 -0.007375 0.291328 0.141985 -0.533066 -0.834075 130 106 81 255 4
0.059050 -0.007381 0.291585 0.138516 -0.546822 -0.825711 131 107 82 255 4
0.059483 -0.007384 0.291698 0.132274 -0.554154 -0.821838 132 109 83 255 4
0.059900 -0.007385 0.291730 0.124401 -0.559032 -0.819761 133 110 84 255 4
0.060320 -0.007386 0.291779 0.116445 -0.563189 -0.818083 132 109 84 255 4
0.060737 -0.007387 0.291811 0.106539 -0.569897 -0.814780 131 108 83 255 4
