ply
format ascii 1.0
comment Created by labeled_geometry.py
element vertex 655
property float x
property float y
property float z
property float nx
property float ny
property float nz
property uchar red
property uchar green
property uchar blue
property uchar alpha
property uchar label
end_header
-0.053631 0.089575 0.405693 0.244181 -0.298557 -0.922626 108 78 57 255 3
-0.053069 0.089589 0.405756 0.245466 -0.303394 -0.920705 110 80 58 255 3
-0.052503 0.089598 0.405798 0.245672 -0.307159 -0.919401 112 83 61 255 3
-0.051949 0.089626 0.405925 0.244952 -0.309724 -0.918733 115 86 63 255 3
-0.051397 0.089659 0.406072 0.244676 -0.313108 -0.917658 116 88 65 255 3
-0.050847 0.089696 0.406240 0.243262 -0.316201 -0.916974 118 91 67 255 3
-0.050301 0.089742 0.406451 0.242789 -0.318741 -0.916219 120 92 68 255 3
-0.049758 0.089793 0.406682 0.242850 -0.322928 -0.914736 120 92 67 255 3
-0.049214 0.089844 0.406913 0.245128 -0.325622 -0.913172 119 91 67 255 3
-0.048675 0.089905 0.407187 0.247918 -0.328918 -0.911235 118 90 65 255 3
-0.048139 0.089974 0.407502 0.250911 -0.332422 -0.909142 115 87 63 255 3
-0.047605 0.090049 0.407839 0.253625 -0.335656 -0.907199 112 85 62 255 3
-0.047078 0.090137 0.408239 0.256491 -0.338603 -0.905296 111 80 56 255 3
-0.046569 0.090262 0.408807 0.265010 -0.342384 -0.901412 106 73 50 255 3
-0.046107 0.090485 0.409817 0.271428 -0.344805 -0.898575 86 72 55 255 3
0.016180 0.090722 0.410890 -0.231018 -0.318448 -0.919359 81 71 55 255 3
0.016713 0.090481 0.409796 -0.211989 -0.302612 -0.929240 102 72 52 255 3
0.017264 0.090351 0.409207 -0.212823 -0.299075 -0.930194 105 74 52 255 3
0.017823 0.090267 0.408828 -0.211375 -0.296357 -0.931393 109 80 57 255 3
0.018384 0.090197 0.408512 -0.212746 -0.292191 -0.932397 112 83 59 255 3
0.018943 0.090123 0.408176 -0.212117 -0.289350 -0.933425 115 86 61 255 3
0.019504 0.090063 0.407902 -0.212854 -0.285498 -0.934443 115 87 61 255 3
0.020065 0.090007 0.407650 -0.213190 -0.282775 -0.935194 116 87 62 255 3
0.020625 0.089947 0.407376 -0.216033 -0.278728 -0.935757 116 88 64 255 3
0.021184 0.089891 0.407124 -0.214592 -0.275016 -0.937185 114 86 62 255 3
0.021748 0.089854 0.406955 -0.215747 -0.271691 -0.937890 113 85 61 255 3
0.022310 0.089812 0.406766 -0.216101 -0.268520 -0.938721 112 84 61 255 3
0.022873 0.089775 0.406598 -0.217349 -0.264989 -0.939436 110 80 58 255 3
0.023437 0.089747 0.406472 -0.217163 -0.261283 -0.940516 109 80 58 255 3
0.024007 0.089742 0.406451 -0.217714 -0.258053 -0.941281 108 78 56 255 3
0.024578 0.089738 0.406429 -0.217815 -0.254681 -0.942175 106 77 56 255 3
0.025152 0.089747 0.406472 -0.217808 -0.250581 -0.943276 104 75 54 255 3
0.025732 0.089775 0.406598 -0.215286 -0.246671 -0.944884 103 74 54 255 3
0.026313 0.089807 0.406745 -0.215834 -0.243206 -0.945657 103 73 54 255 3
0.026902 0.089863 0.406998 -0.216114 -0.240377 -0.946316 102 72 52 255 3
0.027500 0.089947 0.407376 -0.213616 -0.237461 -0.947618 97 67 49 255 3
0.028109 0.090063 0.407902 -0.214791 -0.235044 -0.947955 94 64 48 255 3
0.028759 0.090304 0.408996 -0.212170 -0.233296 -0.948977 95 72 54 255 3
-0.063297 0.100009 0.450085 0.937465 0.348040 0.005283 76 70 53 255 3
-0.056706 0.090501 0.407292 0.245851 -0.288530 -0.925369 88 66 48 255 3
-0.056029 0.090332 0.406535 0.247709 -0.294690 -0.922929 92 66 48 255 3
-0.055400 0.090239 0.406114 0.245141 -0.297397 -0.922746 96 70 50 255 3
-0.054795 0.090183 0.405861 0.244605 -0.300699 -0.921818 101 72 51 255 3
-0.054204 0.090150 0.405714 0.244966 -0.304138 -0.920593 105 75 54 255 3
-0.053623 0.090131 0.405630 0.245169 -0.307918 -0.919282 108 77 56 255 3
-0.053052 0.090131 0.405630 0.245418 -0.311149 -0.918127 110 80 58 255 3
-0.052487 0.090141 0.405672 0.245233 -0.315113 -0.916823 112 83 60 255 3
-0.051925 0.090155 0.405735 0.245401 -0.319687 -0.915193 114 85 62 255 3
-0.051375 0.090192 0.405904 0.244301 -0.322029 -0.914666 115 87 64 255 3
-0.050826 0.090230 0.406072 0.243434 -0.325258 -0.913754 117 90 66 255 3
-0.050275 0.090267 0.406240 0.243095 -0.329014 -0.912499 118 91 67 255 3
-0.049732 0.090318 0.406472 0.245544 -0.331684 -0.910875 120 91 67 255 3
-0.049189 0.090370 0.406703 0.247058 -0.335560 -0.909045 119 91 67 255 3
-0.048647 0.090426 0.406955 0.249735 -0.338224 -0.907324 119 90 66 255 3
-0.048112 0.090496 0.407271 0.254902 -0.341523 -0.904647 117 88 64 255 3
-0.047576 0.090566 0.407587 0.257827 -0.345239 -0.902405 113 85 61 255 3
-0.047042 0.090641 0.407923 0.260954 -0.348480 -0.900258 112 80 56 255 3
-0.046533 0.090767 0.408491 0.269165 -0.352732 -0.896175 108 75 52 255 3
-0.046039 0.090926 0.409207 0.275006 -0.355178 -0.893432 91 72 54 255 3
0.016147 0.091118 0.410069 -0.214561 -0.313792 -0.924932 92 71 54 255 3
0.016699 0.090982 0.409459 -0.212631 -0.309395 -0.926856 102 72 52 255 3
0.017252 0.090861 0.408912 -0.211557 -0.305730 -0.928317 108 77 54 255 3
0.017813 0.090791 0.408596 -0.210591 -0.304066 -0.929083 110 80 57 255 3
0.018373 0.090716 0.408260 -0.211305 -0.299078 -0.930539 113 84 60 255 3
0.018932 0.090646 0.407944 -0.210246 -0.295666 -0.931868 115 87 62 255 3
0.019494 0.090590 0.407692 -0.211616 -0.292157 -0.932664 115 87 62 255 3
0.020055 0.090533 0.407439 -0.210357 -0.289331 -0.933829 115 88 63 255 3
0.020615 0.090477 0.407187 -0.211864 -0.285164 -0.934770 114 87 63 255 3
0.021176 0.090426 0.406955 -0.213121 -0.281426 -0.935617 114 86 62 255 3
0.021738 0.090384 0.406766 -0.211635 -0.277390 -0.937158 113 85 61 255 3
0.022301 0.090347 0.406598 -0.213842 -0.274243 -0.937583 112 83 60 255 3
0.022862 0.090304 0.406408 -0.213780 -0.270914 -0.938565 109 80 58 255 3
0.023432 0.090300 0.406387 -0.215296 -0.266999 -0.939340 108 79 57 255 3
0.024002 0.090295 0.406366 -0.215090 -0.263258 -0.940442 107 77 56 255 3
0.024573 0.090290 0.406345 -0.216085 -0.259497 -0.941259 106 77 56 255 3
0.025152 0.090318 0.406472 -0.214139 -0.255373 -0.942830 104 75 55 255 3
0.025730 0.090342 0.406577 -0.214783 -0.252017 -0.943586 102 73 53 255 3
0.026317 0.090393 0.406808 -0.213062 -0.249509 -0.944643 101 71 52 255 3
0.026909 0.090459 0.407103 -0.214469 -0.247323 -0.944899 99 70 50 255 3
0.027512 0.090562 0.407566 -0.214620 -0.244695 -0.945549 94 66 48 255 3
0.028141 0.090739 0.408365 -0.212970 -0.241899 -0.946641 99 68 51 255 3
0.031649 0.100009 0.450085 -0.926808 0.289161 -0.239611 82 71 54 255 3
-0.056815 0.091248 0.408071 0.245210 -0.296750 -0.922936 87 69 51 255 3
-0.056064 0.090961 0.406787 0.245032 -0.301232 -0.921530 89 64 47 255 3
-0.055417 0.090838 0.406240 0.244901 -0.305766 -0.920071 92 67 48 255 3
-0.054798 0.090758 0.405882 0.247250 -0.309888 -0.918061 99 71 51 255 3
-0.054196 0.090707 0.405651 0.245628 -0.313666 -0.917214 105 74 53 255 3
-0.053611 0.090683 0.405546 0.245169 -0.317556 -0.915997 107 76 55 255 3
-0.053033 0.090669 0.405483 0.245076 -0.320740 -0.914912 112 80 58 255 3
-0.052468 0.090678 0.405525 0.244192 -0.323740 -0.914091 113 82 60 255 3
-0.051903 0.090688 0.405567 0.244025 -0.328110 -0.912576 115 85 62 255 3
-0.051354 0.090725 0.405735 0.243468 -0.331670 -0.911437 116 87 64 255 3
-0.050804 0.090763 0.405904 0.244317 -0.334677 -0.910110 115 88 64 255 3
-0.050252 0.090796 0.406051 0.246225 -0.338108 -0.908326 119 90 67 255 3
-0.049709 0.090848 0.406282 0.247554 -0.340494 -0.907073 120 91 67 255 3
-0.049166 0.090899 0.406514 0.251027 -0.344568 -0.904576 120 91 67 255 3
-0.048622 0.090951 0.406745 0.253870 -0.347076 -0.902822 118 90 65 255 3
-0.048085 0.091017 0.407040 0.255981 -0.351178 -0.900637 118 89 64 255 3
-0.047549 0.091088 0.407355 0.261730 -0.354417 -0.897711 116 86 62 255 3
-0.047015 0.091163 0.407692 0.268500 -0.358446 -0.894105 114 82 58 255 3
-0.046497 0.091271 0.408176 0.271648 -0.361119 -0.892077 107 77 53 255 3
-0.045991 0.091408 0.408786 0.278019 -0.364256 -0.888832 93 73 54 255 3
0.016133 0.091610 0.409691 -0.214239 -0.320312 -0.922769 98 70 52 255 3
0.016686 0.091483 0.409122 -0.210580 -0.316005 -0.925093 104 74 53 255 3
0.017242 0.091384 0.408681 -0.211609 -0.313114 -0.925841 109 78 56 255 3
0.017802 0.091309 0.408344 -0.209663 -0.309956 -0.927345 111 81 58 255 3
0.018362 0.091238 0.408028 -0.210162 -0.305893 -0.928580 113 84 60 255 3
0.018923 0.091172 0.407734 -0.209064 -0.301642 -0.930217 114 85 61 255 3
0.019484 0.091116 0.407481 -0.209708 -0.298399 -0.931118 114 86 61 255 3
0.020045 0.091059 0.407229 -0.209982 -0.295457 -0.931994 115 88 63 255 3
0.020604 0.091003 0.406976 -0.209309 -0.292037 -0.933222 113 86 62 255 3
0.021167 0.090961 0.406787 -0.210697 -0.288111 -0.934130 112 85 61 255 3
0.021729 0.090918 0.406598 -0.210534 -0.283983 -0.935430 112 84 60 255 3
0.022291 0.090881 0.406429 -0.212186 -0.280377 -0.936144 111 83 60 255 3
0.022856 0.090852 0.406303 -0.211499 -0.275613 -0.937713 109 79 57 255 3
0.023426 0.090848 0.406282 -0.212438 -0.271763 -0.938624 107 77 56 255 3
0.023996 0.090843 0.406261 -0.212513 -0.268455 -0.939559 107 77 55 255 3
0.024571 0.090857 0.406324 -0.212863 -0.265027 -0.940452 105 76 55 255 3
0.025151 0.090885 0.406451 -0.212436 -0.262221 -0.941335 103 74 54 255 3
0.025733 0.090923 0.406619 -0.212478 -0.258989 -0.942220 102 71 53 255 3
0.026321 0.090979 0.406871 -0.214028 -0.255819 -0.942735 100 70 51 255 3
0.026921 0.091074 0.407292 -0.213465 -0.253114 -0.943592 95 67 49 255 3
0.027535 0.091210 0.407902 -0.211793 -0.249612 -0.944901 94 65 48 255 3
0.028196 0.091492 0.409165 -0.212200 -0.249327 -0.944885 92 68 51 255 3
-0.056101 0.091594 0.407061 0.244476 -0.309896 -0.918802 90 67 50 255 3
-0.055431 0.091433 0.406345 0.246447 -0.314176 -0.916819 90 66 48 255 3
-0.054800 0.091334 0.405904 0.246124 -0.318651 -0.915360 98 70 50 255 3
-0.054196 0.091277 0.405651 0.247043 -0.323703 -0.913338 104 73 52 255 3
-0.053603 0.091239 0.405483 0.246253 -0.326342 -0.912612 108 77 55 255 3
-0.053022 0.091220 0.405399 0.245027 -0.330400 -0.911481 111 79 57 255 3
-0.052452 0.091220 0.405399 0.244287 -0.333324 -0.910615 113 81 59 255 3
-0.051887 0.091230 0.405441 0.243900 -0.337417 -0.909210 114 84 62 255 3
-0.051330 0.091253 0.405546 0.244145 -0.340455 -0.908011 114 85 62 255 3
-0.050781 0.091291 0.405714 0.246987 -0.344625 -0.905666 115 88 64 255 3
-0.050231 0.091329 0.405882 0.248829 -0.347911 -0.903904 117 89 65 255 3
-0.049686 0.091377 0.406093 0.252084 -0.350605 -0.901959 119 90 66 255 3
-0.049140 0.091424 0.406303 0.255133 -0.354272 -0.899666 120 91 66 255 3
-0.048597 0.091476 0.406535 0.255803 -0.357610 -0.898153 119 90 65 255 3
-0.048057 0.091537 0.406808 0.261399 -0.361259 -0.895077 119 89 64 255 3
-0.047522 0.091608 0.407124 0.267255 -0.364801 -0.891905 117 87 62 255 3
-0.046988 0.091684 0.407460 0.272555 -0.367853 -0.889043 115 84 60 255 3
-0.046461 0.091774 0.407860 0.276339 -0.371391 -0.886400 106 78 54 255 3
-0.045956 0.091911 0.408470 0.283146 -0.374313 -0.883016 98 74 53 255 3
0.015570 0.092267 0.410048 -0.223892 -0.331676 -0.916441 86 68 52 255 3
0.016118 0.092106 0.409333 -0.217292 -0.327333 -0.919586 100 70 50 255 3
0.016670 0.091973 0.408744 -0.210856 -0.322422 -0.922813 107 77 55 255 3
0.017232 0.091902 0.408428 -0.210270 -0.319252 -0.924048 110 81 57 255 3
0.017792 0.091831 0.408113 -0.208025 -0.316700 -0.925433 111 83 58 255 3
0.018352 0.091760 0.407797 -0.207853 -0.312219 -0.926993 112 84 60 255 3
0.018913 0.091698 0.407524 -0.208767 -0.309571 -0.927676 113 85 61 255 3
0.019474 0.091642 0.407271 -0.206114 -0.304327 -0.930001 113 86 62 255 3
0.020034 0.091585 0.407019 -0.208037 -0.301791 -0.930399 114 87 63 255 3
0.020595 0.091533 0.406787 -0.206493 -0.298538 -0.931792 112 86 62 255 3
0.021158 0.091495 0.406619 -0.207888 -0.294757 -0.932685 111 84 60 255 3
0.021720 0.091452 0.406429 -0.209221 -0.291353 -0.933456 110 82 59 255 3
0.022281 0.091410 0.406240 -0.208679 -0.287378 -0.934809 109 81 58 255 3
0.022851 0.091405 0.406219 -0.209361 -0.283748 -0.935764 108 78 56 255 3
0.023421 0.091400 0.406198 -0.209880 -0.279471 -0.936935 106 76 54 255 3
0.023990 0.091391 0.406156 -0.211161 -0.276213 -0.937613 105 76 54 255 3
0.024569 0.091419 0.406282 -0.211035 -0.272630 -0.938689 104 75 54 255 3
0.025148 0.091448 0.406408 -0.212765 -0.269639 -0.939162 103 73 54 255 3
0.025736 0.091504 0.406661 -0.211573 -0.265976 -0.940475 100 70 51 255 3
0.026329 0.091580 0.406998 -0.211654 -0.261754 -0.941641 97 68 49 255 3
0.026934 0.091689 0.407481 -0.209991 -0.258733 -0.942847 93 66 48 255 3
0.027565 0.091883 0.408344 -0.210400 -0.256345 -0.943408 94 67 49 255 3
-0.056188 0.092310 0.407692 0.245700 -0.319195 -0.915285 88 67 51 255 3
-0.055440 0.092019 0.406408 0.244235 -0.322803 -0.914411 90 65 48 255 3
-0.054815 0.091929 0.406009 0.246591 -0.326604 -0.912427 96 69 49 255 3
-0.054199 0.091852 0.405672 0.245674 -0.331236 -0.911003 102 72 51 255 3
-0.053595 0.091795 0.405420 0.247014 -0.336983 -0.908530 106 76 54 255 3
-0.053011 0.091771 0.405314 0.246380 -0.339101 -0.907914 110 78 56 255 3
-0.052435 0.091762 0.405272 0.244536 -0.342367 -0.907186 113 81 59 255 3
-0.051868 0.091767 0.405293 0.244432 -0.345833 -0.905899 114 83 61 255 3
-0.051306 0.091781 0.405357 0.246158 -0.349791 -0.903910 114 85 62 255 3
-0.050757 0.091819 0.405525 0.246262 -0.353238 -0.902540 115 87 64 255 3
-0.050210 0.091862 0.405714 0.249407 -0.356267 -0.900483 117 89 65 255 3
-0.049660 0.091900 0.405882 0.254596 -0.360652 -0.897280 118 91 66 255 3
-0.049117 0.091952 0.406114 0.256650 -0.363930 -0.895369 119 91 66 255 3
-0.048574 0.092005 0.406345 0.260640 -0.366805 -0.893040 120 90 66 255 3
-0.048030 0.092057 0.406577 0.266157 -0.370134 -0.890034 119 89 64 255 3
-0.047495 0.092129 0.406892 0.271776 -0.374352 -0.886565 118 88 63 255 3
-0.046959 0.092200 0.407208 0.276492 -0.377835 -0.883625 115 85 61 255 3
-0.046422 0.092272 0.407524 0.282117 -0.381166 -0.880410 106 80 56 255 3
-0.045915 0.092405 0.408113 0.287570 -0.384346 -0.877258 99 74 52 255 3
-0.045440 0.092605 0.408996 0.290989 -0.386527 -0.875170 85 70 51 255 3
0.015550 0.092724 0.409522 -0.227017 -0.340175 -0.912548 96 71 53 255 3
0.016104 0.092595 0.408954 -0.220027 -0.335182 -0.916101 102 73 52 255 3
0.016659 0.092486 0.408470 -0.214455 -0.330998 -0.918939 107 79 57 255 3
0.017220 0.092414 0.408155 -0.211021 -0.327482 -0.920992 112 83 59 255 3
0.017780 0.092343 0.407839 -0.207395 -0.323799 -0.923115 113 85 60 255 3
0.018342 0.092281 0.407566 -0.207419 -0.319937 -0.924455 113 85 61 255 3
0.018903 0.092224 0.407313 -0.208093 -0.316846 -0.925368 114 87 62 255 3
0.019464 0.092167 0.407061 -0.208565 -0.312721 -0.926664 114 87 63 255 3
0.020024 0.092110 0.406808 -0.205481 -0.308363 -0.928811 113 87 63 255 3
0.020586 0.092067 0.406619 -0.206383 -0.305500 -0.929557 112 86 62 255 3
0.021148 0.092024 0.406429 -0.205486 -0.301703 -0.930995 110 83 60 255 3
0.021710 0.091981 0.406240 -0.206479 -0.297979 -0.931974 109 82 59 255 3
0.022275 0.091957 0.406135 -0.205886 -0.294192 -0.933307 109 79 57 255 3
0.022845 0.091952 0.406114 -0.207262 -0.290343 -0.934207 108 78 56 255 3
0.023413 0.091938 0.406051 -0.207842 -0.286943 -0.935128 107 76 54 255 3
0.023988 0.091952 0.406114 -0.208505 -0.283210 -0.936118 106 74 53 255 3
0.024566 0.091981 0.406240 -0.210992 -0.280065 -0.936507 103 73 52 255 3
0.025149 0.092024 0.406429 -0.211240 -0.276697 -0.937452 102 72 53 255 3
0.025737 0.092081 0.406682 -0.210007 -0.271671 -0.939198 99 68 50 255 3
0.026337 0.092181 0.407124 -0.209611 -0.268741 -0.940129 95 65 48 255 3
0.026956 0.092338 0.407818 -0.210314 -0.266178 -0.940700 95 66 49 255 3
0.027627 0.092667 0.409270 -0.208990 -0.263108 -0.941859 83 67 50 255 3
-0.061750 0.102076 0.448044 0.978652 0.195707 0.062756 81 69 52 255 3
-0.055472 0.092643 0.406640 0.247520 -0.332314 -0.910110 92 66 49 255 3
-0.054829 0.092524 0.406114 0.246945 -0.336105 -0.908874 95 68 48 255 3
-0.054199 0.092423 0.405672 0.246452 -0.340201 -0.907483 100 71 50 255 3
-0.053595 0.092365 0.405420 0.246848 -0.345151 -0.905504 105 74 52 255 3
-0.053003 0.092327 0.405251 0.245844 -0.349399 -0.904147 109 77 55 255 3
-0.052419 0.092303 0.405146 0.246258 -0.351436 -0.903244 113 81 58 255 3
-0.051852 0.092308 0.405167 0.247276 -0.355550 -0.901354 115 84 61 255 3
-0.051287 0.092317 0.405209 0.246460 -0.358983 -0.900216 115 86 62 255 3
-0.050733 0.092346 0.405335 0.249325 -0.362576 -0.897984 115 87 64 255 3
-0.050187 0.092389 0.405525 0.255029 -0.366815 -0.894655 116 88 64 255 3
-0.049640 0.092432 0.405714 0.258213 -0.370768 -0.892108 118 90 66 255 3
-0.049095 0.092480 0.405925 0.261759 -0.373735 -0.889834 119 90 66 255 3
-0.048549 0.092528 0.406135 0.263813 -0.377003 -0.887846 120 90 66 255 3
-0.048002 0.092576 0.406345 0.269428 -0.380899 -0.884491 118 88 64 255 3
-0.047463 0.092639 0.406619 0.276774 -0.384542 -0.880638 118 87 63 255 3
-0.046928 0.092710 0.406934 0.284781 -0.388486 -0.876344 117 86 63 255 3
-0.046391 0.092782 0.407250 0.288360 -0.391869 -0.873663 108 81 57 255 3
-0.045873 0.092893 0.407734 0.292453 -0.395048 -0.870867 103 74 49 255 3
-0.045370 0.093036 0.408365 0.298409 -0.398461 -0.867283 98 70 48 255 3
0.015003 0.093477 0.410301 -0.240248 -0.353960 -0.903877 76 69 54 255 3
0.015536 0.093219 0.409165 -0.231997 -0.348366 -0.908195 100 72 53 255 3
0.016089 0.093084 0.408575 -0.222190 -0.343919 -0.912333 106 76 54 255 3
0.016648 0.092998 0.408197 -0.215071 -0.338812 -0.915943 109 81 58 255 3
0.017209 0.092926 0.407881 -0.210369 -0.334693 -0.918545 113 84 59 255 3
0.017768 0.092854 0.407566 -0.207564 -0.331466 -0.920352 114 86 61 255 3
0.018331 0.092802 0.407334 -0.207102 -0.327544 -0.921859 115 87 62 255 3
0.018892 0.092744 0.407082 -0.206936 -0.324654 -0.922918 114 87 62 255 3
0.019454 0.092691 0.406850 -0.204832 -0.320120 -0.924969 115 88 63 255 3
0.020015 0.092639 0.406619 -0.205490 -0.315511 -0.926405 113 87 63 255 3
0.020577 0.092595 0.406429 -0.204706 -0.312435 -0.927621 112 85 62 255 3
0.021140 0.092557 0.406261 -0.205239 -0.309006 -0.928651 111 84 62 255 3
0.021701 0.092514 0.406072 -0.204979 -0.305004 -0.930030 111 83 60 255 3
0.022270 0.092504 0.406030 -0.205796 -0.301242 -0.931075 109 80 58 255 3
0.022837 0.092490 0.405967 -0.205865 -0.297767 -0.932177 110 78 57 255 3
0.023408 0.092490 0.405967 -0.206718 -0.294030 -0.933174 108 76 54 255 3
0.023985 0.092514 0.406072 -0.207721 -0.290263 -0.934130 106 74 52 255 3
0.024564 0.092543 0.406198 -0.207273 -0.286642 -0.935347 104 72 51 255 3
0.025151 0.092600 0.406451 -0.207352 -0.282254 -0.936663 100 69 50 255 3
0.025744 0.092677 0.406787 -0.207679 -0.278824 -0.937618 96 66 48 255 3
0.026350 0.092797 0.407313 -0.208905 -0.276324 -0.938085 93 64 47 255 3
0.026989 0.093027 0.408323 -0.210295 -0.273402 -0.938631 91 68 49 255 3
-0.055543 0.093336 0.407166 0.247603 -0.339789 -0.907324 88 67 50 255 3
-0.054837 0.093109 0.406177 0.247624 -0.345905 -0.905004 94 66 47 255 3
-0.054213 0.093017 0.405777 0.245042 -0.347996 -0.904905 98 70 49 255 3
-0.053597 0.092940 0.405441 0.245964 -0.352663 -0.902846 104 73 52 255 3
-0.052997 0.092887 0.405209 0.245032 -0.356683 -0.901519 108 76 54 255 3
-0.052411 0.092858 0.405083 0.249075 -0.361640 -0.898431 110 79 57 255 3
-0.051836 0.092849 0.405041 0.247353 -0.364188 -0.897877 113 83 60 255 3
-0.051269 0.092854 0.405062 0.248614 -0.367683 -0.896103 114 84 61 255 3
-0.050710 0.092873 0.405146 0.254471 -0.371732 -0.892782 116 87 64 255 3
-0.050163 0.092916 0.405335 0.255609 -0.374929 -0.891119 115 87 64 255 3
-0.049614 0.092955 0.405504 0.259102 -0.379032 -0.888370 118 89 66 255 3
-0.049067 0.092998 0.405693 0.264761 -0.383048 -0.884972 118 90 66 255 3
-0.048521 0.093046 0.405904 0.270478 -0.386690 -0.881654 120 91 67 255 3
-0.047975 0.093095 0.406114 0.276371 -0.390656 -0.878070 119 89 65 255 3
-0.047431 0.093148 0.406345 0.279809 -0.394687 -0.875174 118 88 63 255 3
-0.046898 0.093225 0.406682 0.286007 -0.398313 -0.871520 117 86 62 255 3
-0.046362 0.093297 0.406998 0.294809 -0.402245 -0.866768 112 82 59 255 3
-0.045833 0.093384 0.407376 0.298255 -0.405651 -0.863997 106 73 49 255 3
-0.045328 0.093524 0.407986 0.301423 -0.408897 -0.861364 99 67 46 255 3
0.014969 0.093842 0.409375 -0.239734 -0.361985 -0.900830 87 70 52 255 3
0.015522 0.093707 0.408786 -0.233131 -0.356167 -0.904873 99 72 52 255 3
0.016075 0.093582 0.408239 -0.226195 -0.352057 -0.908235 108 79 57 255 3
0.016637 0.093509 0.407923 -0.217914 -0.346598 -0.912350 112 84 60 255 3
0.017198 0.093442 0.407629 -0.214025 -0.342492 -0.914818 114 86 61 255 3
0.017758 0.093374 0.407334 -0.209522 -0.338221 -0.917446 114 87 62 255 3
0.018321 0.093321 0.407103 -0.205505 -0.334109 -0.919858 114 87 63 255 3
0.018882 0.093263 0.406850 -0.205747 -0.330937 -0.920950 114 87 62 255 3
0.019443 0.093210 0.406619 -0.203916 -0.327687 -0.922518 114 87 63 255 3
0.020005 0.093167 0.406429 -0.203668 -0.323991 -0.923877 112 85 61 255 3
0.020568 0.093128 0.406261 -0.203846 -0.319163 -0.925517 111 84 61 255 3
0.021130 0.093085 0.406072 -0.202259 -0.315035 -0.927278 110 83 61 255 3
0.021695 0.093061 0.405967 -0.204380 -0.311890 -0.927876 109 81 60 255 3
0.022263 0.093046 0.405904 -0.203529 -0.308675 -0.929137 109 79 57 255 3
0.022830 0.093032 0.405840 -0.204050 -0.304871 -0.930278 109 77 56 255 3
0.023406 0.093051 0.405925 -0.203188 -0.300485 -0.931892 108 74 53 255 3
0.023981 0.093071 0.406009 -0.203837 -0.296232 -0.933111 106 72 51 255 3
0.024565 0.093119 0.406219 -0.204879 -0.291975 -0.934224 105 71 51 255 3
0.025153 0.093181 0.406493 -0.205883 -0.288595 -0.935053 98 68 48 255 3
0.025752 0.093278 0.406913 -0.206615 -0.285079 -0.935970 94 66 47 255 3
0.026373 0.093452 0.407671 -0.207143 -0.282381 -0.936671 94 66 48 255 3
0.029580 0.102586 0.447518 -0.973384 0.091491 -0.210126 75 66 49 255 3
-0.060982 0.103104 0.447035 0.990453 0.113413 0.078355 83 69 53 255 3
-0.054846 0.093695 0.406240 0.245850 -0.353140 -0.902690 94 67 49 255 3
-0.054227 0.093612 0.405882 0.248011 -0.357239 -0.900484 96 68 48 255 3
-0.053597 0.093511 0.405441 0.245185 -0.360892 -0.899801 103 72 51 255 3
-0.052997 0.093457 0.405209 0.248589 -0.365267 -0.897098 106 76 54 255 3
-0.052405 0.093418 0.405041 0.246977 -0.369636 -0.895752 108 78 57 255 3
-0.051820 0.093389 0.404915 0.252215 -0.374067 -0.892447 112 82 59 255 3
-0.051253 0.093394 0.404936 0.256582 -0.377865 -0.889598 114 84 61 255 3
-0.050683 0.093394 0.404936 0.255799 -0.381358 -0.888332 115 86 63 255 3
-0.050135 0.093433 0.405104 0.259399 -0.384725 -0.885832 117 88 65 255 3
-0.049586 0.093472 0.405272 0.266436 -0.390349 -0.881271 118 90 66 255 3
-0.049036 0.093511 0.405441 0.269532 -0.393503 -0.878924 119 91 66 255 3
-0.048493 0.093564 0.405672 0.273658 -0.396583 -0.876261 120 91 67 255 3
-0.047948 0.093612 0.405882 0.282113 -0.400961 -0.871575 119 90 66 255 3
-0.047402 0.093661 0.406093 0.287230 -0.405223 -0.867925 118 88 64 255 3
-0.046867 0.093734 0.406408 0.294363 -0.408854 -0.863822 118 87 64 255 3
-0.046331 0.093806 0.406724 0.298503 -0.412803 -0.860517 114 83 61 255 3
-0.045795 0.093879 0.407040 0.304131 -0.416306 -0.856851 109 74 51 255 3
-0.045285 0.094010 0.407608 0.308390 -0.418185 -0.854410 100 66 45 255 3
-0.044811 0.094219 0.408512 0.310549 -0.418730 -0.853360 82 70 53 255 3
0.014955 0.094331 0.408996 -0.245780 -0.370810 -0.895596 95 70 50 255 3
0.015508 0.094195 0.408407 -0.236567 -0.365854 -0.900104 101 74 52 255 3
0.016065 0.094098 0.407986 -0.232205 -0.361400 -0.903035 110 81 58 255 3
0.016626 0.094025 0.407671 -0.222504 -0.356175 -0.907541 113 86 61 255 3
0.017186 0.093952 0.407355 -0.216305 -0.351495 -0.910859 114 87 62 255 3
0.017748 0.093894 0.407103 -0.212598 -0.347424 -0.913290 115 88 63 255 3
0.018310 0.093840 0.406871 -0.208860 -0.343017 -0.915815 115 88 63 255 3
0.018872 0.093787 0.406640 -0.205855 -0.338962 -0.918002 114 87 63 255 3
0.019433 0.093734 0.406408 -0.205539 -0.335489 -0.919348 113 86 62 255 3
0.019995 0.093690 0.406219 -0.204323 -0.331816 -0.920951 113 86 62 255 3
0.020558 0.093651 0.406051 -0.203584 -0.327493 -0.922660 111 84 61 255 3
0.021120 0.093612 0.405882 -0.203152 -0.324151 -0.923935 110 83 61 255 3
0.021687 0.093598 0.405819 -0.201908 -0.319871 -0.925698 110 81 60 255 3
0.022255 0.093583 0.405756 -0.202196 -0.315993 -0.926966 109 79 58 255 3
0.022825 0.093583 0.405756 -0.201960 -0.311794 -0.928438 109 76 55 255 3
0.023401 0.093603 0.405840 -0.201087 -0.307404 -0.930090 108 73 52 255 3
0.023979 0.093632 0.405967 -0.201675 -0.303433 -0.931266 106 72 50 255 3
0.024566 0.093695 0.406240 -0.204293 -0.300257 -0.931724 103 69 49 255 3
0.025158 0.093773 0.406577 -0.204643 -0.296631 -0.932808 98 68 48 255 3
0.025768 0.093908 0.407166 -0.204444 -0.292787 -0.934066 92 66 48 255 3
0.026412 0.094166 0.408281 -0.204367 -0.288229 -0.935499 85 66 49 255 3
-0.054888 0.094339 0.406556 0.246649 -0.360070 -0.899730 89 66 48 255 3
-0.054235 0.094198 0.405946 0.248998 -0.367102 -0.896234 96 67 47 255 3
-0.053611 0.094105 0.405546 0.248077 -0.369933 -0.895325 102 71 50 255 3
-0.052997 0.094027 0.405209 0.248962 -0.373636 -0.893540 106 75 54 255 3
-0.052397 0.093973 0.404978 0.250414 -0.377901 -0.891338 108 78 57 255 3
-0.051806 0.093934 0.404809 0.256662 -0.384470 -0.886740 112 81 59 255 3
-0.051229 0.093920 0.404746 0.257375 -0.387549 -0.885191 114 83 61 255 3
-0.050662 0.093924 0.404767 0.260995 -0.390958 -0.882629 116 86 63 255 3
-0.050106 0.093949 0.404873 0.264268 -0.395544 -0.879606 118 89 65 255 3
-0.049555 0.093983 0.405020 0.268000 -0.399434 -0.876714 120 90 67 255 3
-0.049005 0.094022 0.405188 0.275557 -0.403913 -0.872309 120 91 67 255 3
-0.048463 0.094076 0.405420 0.281766 -0.408019 -0.868406 121 92 67 255 3
-0.047920 0.094130 0.405651 0.287207 -0.411849 -0.864808 121 92 67 255 3
-0.047375 0.094178 0.405861 0.293540 -0.416078 -0.860647 119 89 65 255 3
-0.046835 0.094242 0.406135 0.298587 -0.419876 -0.857059 119 89 64 255 3
-0.046300 0.094315 0.406451 0.303321 -0.423241 -0.853735 116 86 63 255 3
-0.045766 0.094393 0.406787 0.310086 -0.426684 -0.849581 110 76 55 255 3
-0.045246 0.094501 0.407250 0.312789 -0.428702 -0.847572 99 66 46 255 3
-0.044742 0.094647 0.407881 0.315066 -0.430871 -0.845626 94 72 54 255 3
0.014394 0.094999 0.409396 -0.254354 -0.384410 -0.887431 82 68 51 255 3
0.014941 0.094818 0.408618 -0.247491 -0.379002 -0.891687 98 69 49 255 3
0.015493 0.094681 0.408028 -0.241304 -0.374662 -0.895210 108 78 55 255 3
0.016055 0.094608 0.407713 -0.233426 -0.369738 -0.899336 113 84 61 255 3
0.016615 0.094535 0.407397 -0.226681 -0.365263 -0.902883 113 86 61 255 3
0.017177 0.094471 0.407124 -0.219880 -0.360405 -0.906510 116 89 64 255 3
0.017738 0.094413 0.406871 -0.212282 -0.355821 -0.910125 116 89 64 255 3
0.018300 0.094359 0.406640 -0.208893 -0.351103 -0.912738 116 89 64 255 3
0.018861 0.094305 0.406408 -0.204919 -0.346352 -0.915450 115 88 63 255 3
0.019423 0.094256 0.406198 -0.203811 -0.342393 -0.917185 115 87 63 255 3
0.019986 0.094217 0.406030 -0.202817 -0.339043 -0.918649 112 85 61 255 3
0.020548 0.094178 0.405861 -0.203890 -0.335743 -0.919623 112 84 61 255 3
0.021112 0.094149 0.405735 -0.204075 -0.331425 -0.921147 110 83 61 255 3
0.021679 0.094134 0.405672 -0.202480 -0.327330 -0.922961 109 81 59 255 3
0.022248 0.094125 0.405630 -0.201659 -0.323341 -0.924546 109 79 58 255 3
0.022822 0.094139 0.405693 -0.200724 -0.319214 -0.926182 108 75 54 255 3
0.023397 0.094159 0.405777 -0.201534 -0.315199 -0.927380 106 71 51 255 3
0.023981 0.094213 0.406009 -0.202337 -0.311130 -0.928579 105 71 50 255 3
0.024570 0.094281 0.406303 -0.202415 -0.307910 -0.929634 102 68 48 255 3
0.025166 0.094374 0.406703 -0.201662 -0.303383 -0.931285 96 67 48 255 3
0.025790 0.094564 0.407524 -0.203351 -0.299550 -0.932158 92 67 49 255 3
0.028885 0.103610 0.446509 -0.977731 -0.037611 -0.206463 73 67 51 255 3
-0.060217 0.104125 0.446025 0.995120 0.008500 0.098303 85 70 51 255 3
-0.054244 0.094783 0.406009 0.248527 -0.372806 -0.894008 94 66 46 255 3
-0.053623 0.094695 0.405630 0.254067 -0.379986 -0.889416 100 70 48 255 3
-0.052992 0.094587 0.405167 0.251654 -0.382961 -0.888826 105 75 54 255 3
-0.052384 0.094518 0.404873 0.257203 -0.388458 -0.884843 108 77 57 255 3
-0.051790 0.094474 0.404683 0.258305 -0.393207 -0.882421 112 81 59 255 3
-0.051208 0.094449 0.404578 0.262838 -0.398124 -0.878870 114 83 61 255 3
-0.050639 0.094449 0.404578 0.264083 -0.401275 -0.877062 116 85 62 255 3
-0.050077 0.094464 0.404641 0.268775 -0.405976 -0.873466 118 87 64 255 3
-0.049526 0.094499 0.404788 0.274350 -0.409643 -0.870014 120 90 66 255 3
-0.048977 0.094538 0.404957 0.281285 -0.414875 -0.865307 120 91 67 255 3
-0.048433 0.094587 0.405167 0.286845 -0.418418 -0.861769 120 92 67 255 3
-0.047891 0.094641 0.405399 0.293803 -0.422407 -0.857468 121 93 68 255 3
-0.047348 0.094695 0.405630 0.299477 -0.426900 -0.853270 120 91 66 255 3
-0.046804 0.094749 0.405861 0.303696 -0.431293 -0.849562 120 90 66 255 3
-0.046269 0.094823 0.406177 0.311054 -0.433845 -0.845591 116 87 64 255 3
-0.045736 0.094901 0.406514 0.314338 -0.437520 -0.842477 111 81 59 255 3
-0.045204 0.094985 0.406871 0.320503 -0.440609 -0.838535 101 70 50 255 3
-0.044701 0.095132 0.407502 0.324578 -0.442872 -0.835771 96 68 49 255 3
0.014373 0.095437 0.408807 -0.258060 -0.393857 -0.882203 94 69 51 255 3
0.014926 0.095299 0.408218 -0.253815 -0.389329 -0.885438 103 71 50 255 3
0.015483 0.095191 0.407755 -0.245264 -0.384779 -0.889826 111 81 57 255 3
0.016045 0.095122 0.407460 -0.239500 -0.379564 -0.893628 112 85 62 255 3
0.016605 0.095049 0.407145 -0.233000 -0.375108 -0.897221 115 87 63 255 3
0.017167 0.094990 0.406892 -0.225461 -0.369499 -0.901464 116 88 64 255 3
0.017729 0.094936 0.406661 -0.217459 -0.364263 -0.905552 117 90 65 255 3
0.018290 0.094877 0.406408 -0.212226 -0.359525 -0.908682 116 88 64 255 3
0.018850 0.094823 0.406177 -0.207409 -0.354724 -0.911676 115 87 63 255 3
0.019413 0.094783 0.406009 -0.205268 -0.350647 -0.913735 115 87 62 255 3
0.019976 0.094744 0.405840 -0.204415 -0.346553 -0.915487 114 86 62 255 3
0.020537 0.094700 0.405651 -0.202037 -0.342336 -0.917599 113 84 61 255 3
0.021105 0.094685 0.405588 -0.203384 -0.339564 -0.918331 111 83 61 255 3
0.021672 0.094671 0.405525 -0.200211 -0.334234 -0.920980 110 81 59 255 3
0.022242 0.094671 0.405525 -0.200517 -0.330954 -0.922097 108 77 57 255 3
0.022817 0.094690 0.405609 -0.201198 -0.326811 -0.923425 106 74 54 255 3
0.023396 0.094725 0.405756 -0.201717 -0.323096 -0.924618 105 71 51 255 3
0.023983 0.094788 0.406030 -0.199149 -0.320230 -0.926171 104 70 50 255 3
0.024575 0.094872 0.406387 -0.199376 -0.314849 -0.927965 98 67 48 255 3
0.025186 0.095019 0.407019 -0.200432 -0.309843 -0.929422 93 66 48 255 3
0.025835 0.095304 0.408239 -0.202434 -0.307594 -0.929735 86 68 51 255 3
-0.054249 0.095364 0.406051 0.253246 -0.382024 -0.888777 90 66 47 255 3
-0.053620 0.095261 0.405609 0.253273 -0.386887 -0.886663 99 68 47 255 3
-0.052983 0.095142 0.405104 0.258193 -0.393970 -0.882114 102 74 53 255 3
-0.052373 0.095068 0.404788 0.258911 -0.397303 -0.880407 107 76 55 255 3
-0.051771 0.095009 0.404536 0.263736 -0.402954 -0.876397 112 79 57 255 3
-0.051184 0.094974 0.404389 0.265183 -0.408398 -0.873435 115 82 60 255 3
-0.050618 0.094979 0.404410 0.272020 -0.412580 -0.869358 116 84 61 255 3
-0.050049 0.094979 0.404410 0.271088 -0.415598 -0.868210 118 87 64 255 3
-0.049501 0.095018 0.404578 0.280330 -0.420699 -0.862802 119 89 65 255 3
-0.048949 0.095053 0.404725 0.289305 -0.426678 -0.856883 119 89 66 255 3
-0.048400 0.095093 0.404894 0.294948 -0.430041 -0.853270 120 91 66 255 3
-0.047861 0.095152 0.405146 0.299711 -0.433843 -0.849679 121 91 67 255 3
-0.047318 0.095206 0.405378 0.304977 -0.438574 -0.845365 121 91 67 255 3
-0.046775 0.095261 0.405609 0.313010 -0.442491 -0.840373 118 90 65 255 3
-0.046238 0.095330 0.405904 0.317694 -0.445413 -0.837065 115 87 64 255 3
-0.045705 0.095409 0.406240 0.320682 -0.448136 -0.834468 112 84 61 255 3
-0.045169 0.095483 0.406556 0.326520 -0.451677 -0.830285 105 76 55 255 3
-0.044661 0.095621 0.407145 0.331097 -0.454377 -0.826992 99 69 49 255 3
0.013817 0.096140 0.409354 -0.267064 -0.407355 -0.873349 80 69 53 255 3
0.014358 0.095913 0.408386 -0.263248 -0.404269 -0.875938 99 69 50 255 3
0.014911 0.095774 0.407797 -0.254454 -0.398930 -0.880970 106 74 51 255 3
0.015473 0.095700 0.407481 -0.250045 -0.394582 -0.884185 112 82 58 255 3
0.016034 0.095631 0.407187 -0.242875 -0.389001 -0.888645 114 86 63 255 3
0.016595 0.095562 0.406892 -0.234905 -0.384052 -0.892930 115 87 63 255 3
0.017157 0.095508 0.406661 -0.225982 -0.377868 -0.897858 116 89 65 255 3
0.017719 0.095453 0.406429 -0.220039 -0.372992 -0.901366 115 89 64 255 3
0.018279 0.095394 0.406177 -0.212693 -0.367904 -0.905212 114 87 63 255 3
0.018842 0.095350 0.405988 -0.209013 -0.363496 -0.907846 115 87 63 255 3
0.019403 0.095305 0.405798 -0.208644 -0.359535 -0.909507 116 86 62 255 3
0.019966 0.095266 0.405630 -0.205186 -0.354811 -0.912145 114 85 61 255 3
0.020530 0.095236 0.405504 -0.203494 -0.351152 -0.913938 114 85 62 255 3
0.021097 0.095221 0.405441 -0.201967 -0.346986 -0.915866 112 82 61 255 3
0.021664 0.095206 0.405378 -0.203286 -0.342420 -0.917291 109 80 59 255 3
0.022238 0.095226 0.405462 -0.200333 -0.338287 -0.919472 107 77 57 255 3
0.022813 0.095246 0.405546 -0.201016 -0.334934 -0.920550 105 73 53 255 3
0.023398 0.095305 0.405798 -0.199906 -0.331898 -0.921890 104 71 51 255 3
0.023986 0.095374 0.406093 -0.200292 -0.326458 -0.923747 100 69 49 255 3
0.024583 0.095473 0.406514 -0.198174 -0.322178 -0.925704 94 66 47 255 3
0.025209 0.095681 0.407397 -0.200556 -0.318509 -0.926461 93 68 49 255 3
-0.054359 0.096129 0.406871 0.259235 -0.390566 -0.883321 85 69 51 255 3
-0.053617 0.095826 0.405588 0.260669 -0.396721 -0.880150 96 68 48 255 3
-0.052981 0.095707 0.405083 0.261781 -0.403535 -0.876716 101 73 52 255 3
-0.052365 0.095622 0.404725 0.264900 -0.407973 -0.873720 107 75 55 255 3
-0.051758 0.095553 0.404431 0.265205 -0.412484 -0.871506 112 79 57 255 3
-0.051168 0.095513 0.404262 0.271977 -0.418478 -0.866548 115 82 59 255 3
-0.050594 0.095503 0.404220 0.274319 -0.423366 -0.863430 116 84 60 255 3
-0.050025 0.095503 0.404220 0.281096 -0.427213 -0.859345 117 86 63 255 3
-0.049472 0.095533 0.404347 0.284702 -0.431467 -0.856027 118 89 65 255 3
-0.048921 0.095568 0.404494 0.293441 -0.437611 -0.849935 117 89 65 255 3
-0.048370 0.095602 0.404641 0.301449 -0.441445 -0.845136 119 90 66 255 3
-0.047829 0.095657 0.404873 0.306133 -0.446010 -0.841046 120 91 66 255 3
-0.047289 0.095717 0.405125 0.311903 -0.449122 -0.837261 120 91 66 255 3
-0.046743 0.095766 0.405335 0.318950 -0.453448 -0.832259 117 90 65 255 3
-0.046202 0.095826 0.405588 0.323315 -0.456252 -0.829036 115 87 64 255 3
-0.045667 0.095901 0.405904 0.329317 -0.460616 -0.824247 113 86 62 255 3
-0.045131 0.095975 0.406219 0.332977 -0.463087 -0.821387 108 81 58 255 3
-0.044618 0.096099 0.406745 0.337747 -0.465532 -0.818051 100 69 48 255 3
-0.044114 0.096249 0.407376 0.340045 -0.466119 -0.816763 93 73 52 255 3
0.013790 0.096527 0.408554 -0.270914 -0.418580 -0.866831 89 67 50 255 3
0.014343 0.096388 0.407965 -0.266590 -0.413706 -0.870504 101 70 50 255 3
0.014899 0.096273 0.407481 -0.258159 -0.409446 -0.875047 108 77 54 255 3
0.015461 0.096204 0.407187 -0.251827 -0.404336 -0.879259 113 84 60 255 3
0.016022 0.096134 0.406892 -0.243885 -0.398126 -0.884317 115 87 63 255 3
0.016584 0.096075 0.406640 -0.237273 -0.392943 -0.888424 116 88 64 255 3
0.017147 0.096025 0.406429 -0.233733 -0.387679 -0.891669 116 88 64 255 3
0.017709 0.095970 0.406198 -0.225155 -0.382407 -0.896142 116 89 65 255 3
0.018270 0.095916 0.405967 -0.220835 -0.377735 -0.899193 115 88 64 255 3
0.018832 0.095871 0.405777 -0.213331 -0.372659 -0.903114 115 87 63 255 3
0.019394 0.095831 0.405609 -0.208314 -0.367944 -0.906213 116 86 62 255 3
0.019957 0.095791 0.405441 -0.204134 -0.362893 -0.909196 116 86 62 255 3
0.020521 0.095766 0.405335 -0.203447 -0.358768 -0.910986 114 84 61 255 3
0.021089 0.095756 0.405293 -0.203928 -0.354036 -0.912727 112 82 60 255 3
0.021659 0.095756 0.405293 -0.202329 -0.350212 -0.914557 110 80 59 255 3
0.022234 0.095776 0.405378 -0.202437 -0.347823 -0.915444 107 77 56 255 3
0.022815 0.095821 0.405567 -0.199407 -0.342349 -0.918169 104 72 52 255 3
0.023398 0.095876 0.405798 -0.199892 -0.338286 -0.919568 101 70 50 255 3
0.023993 0.095970 0.406198 -0.199283 -0.334159 -0.921208 96 67 47 255 3
0.024605 0.096129 0.406871 -0.199571 -0.330548 -0.922447 93 67 49 255 3
0.027537 0.105141 0.445015 -0.966061 -0.171507 -0.193161 81 68 50 255 3
-0.053614 0.096391 0.405567 0.260654 -0.405863 -0.875976 92 68 49 255 3
-0.052978 0.096271 0.405062 0.266934 -0.412673 -0.870889 98 72 50 255 3
-0.052354 0.096171 0.404641 0.268447 -0.418500 -0.867637 105 74 53 255 3
-0.051747 0.096101 0.404347 0.272800 -0.423001 -0.864090 111 78 56 255 3
-0.051152 0.096051 0.404136 0.276246 -0.428691 -0.860181 114 81 58 255 3
-0.050570 0.096026 0.404031 0.284072 -0.434754 -0.854571 117 84 61 255 3
-0.050005 0.096031 0.404052 0.284724 -0.437276 -0.853066 117 87 64 255 3
-0.049444 0.096046 0.404115 0.294193 -0.442860 -0.846951 116 88 65 255 3
-0.048894 0.096081 0.404262 0.300580 -0.448649 -0.841644 118 90 66 255 3
-0.048345 0.096121 0.404431 0.305646 -0.452045 -0.837995 118 89 65 255 3
-0.047796 0.096161 0.404599 0.313630 -0.456346 -0.832697 119 91 66 255 3
-0.047252 0.096211 0.404809 0.316466 -0.459244 -0.830026 116 87 62 255 3
-0.046707 0.096261 0.405020 0.326628 -0.463644 -0.823619 117 88 63 255 3
-0.046161 0.096311 0.405230 0.331404 -0.467689 -0.819413 115 87 63 255 3
-0.045627 0.096386 0.405546 0.335759 -0.471222 -0.815608 113 86 62 255 3
-0.045094 0.096466 0.405882 0.342323 -0.473972 -0.811274 111 83 59 255 3
-0.044571 0.096571 0.406324 0.345733 -0.475669 -0.808831 105 72 49 255 3
-0.044071 0.096726 0.406976 0.345449 -0.477399 -0.807932 96 71 49 255 3
0.013237 0.097261 0.409228 -0.278370 -0.430248 -0.858718 76 68 53 255 3
0.013775 0.097001 0.408134 -0.275221 -0.428407 -0.860652 94 68 50 255 3
0.014329 0.096861 0.407545 -0.268625 -0.424327 -0.864747 103 72 51 255 3
0.014889 0.096776 0.407187 -0.263167 -0.419799 -0.868626 111 82 58 255 3
0.015450 0.096706 0.406892 -0.255479 -0.413052 -0.874139 114 87 62 255 3
0.016011 0.096636 0.406598 -0.251786 -0.408361 -0.877408 116 89 64 255 3
0.016573 0.096581 0.406366 -0.243881 -0.402714 -0.882238 117 90 66 255 3
0.017136 0.096531 0.406156 -0.238556 -0.397528 -0.886037 116 90 66 255 3
0.017698 0.096481 0.405946 -0.228334 -0.391039 -0.891601 115 88 64 255 3
0.018260 0.096436 0.405756 -0.221239 -0.386437 -0.895388 115 88 64 255 3
0.018823 0.096396 0.405588 -0.213058 -0.380895 -0.899736 116 87 63 255 3
0.019384 0.096351 0.405399 -0.211615 -0.376799 -0.901799 116 86 62 255 3
0.019948 0.096321 0.405272 -0.208687 -0.371511 -0.904671 116 85 62 255 3
0.020514 0.096301 0.405188 -0.204112 -0.366021 -0.907947 115 83 61 255 3
0.021080 0.096286 0.405125 -0.201643 -0.362461 -0.909924 113 82 60 255 3
0.021655 0.096306 0.405209 -0.202658 -0.359934 -0.910702 111 79 59 255 3
0.022231 0.096336 0.405335 -0.201895 -0.354680 -0.912930 107 77 56 255 3
0.022815 0.096391 0.405567 -0.200502 -0.350155 -0.914981 102 71 50 255 3
0.023404 0.096471 0.405904 -0.199868 -0.345622 -0.916841 97 66 47 255 3
0.024004 0.096586 0.406387 -0.200942 -0.341909 -0.917998 93 65 46 255 3
0.024636 0.096826 0.407397 -0.200601 -0.336020 -0.920245 89 68 50 255 3
-0.053661 0.097047 0.405925 0.269095 -0.415945 -0.868664 86 69 51 255 3
-0.052978 0.096841 0.405062 0.269187 -0.421272 -0.866065 98 72 50 255 3
-0.052346 0.096725 0.404578 0.276707 -0.429816 -0.859472 104 74 52 255 3
-0.051736 0.096650 0.404262 0.275575 -0.433106 -0.858183 111 77 54 255 3
-0.051136 0.096590 0.404010 0.283104 -0.438907 -0.852768 116 81 59 255 3
-0.050546 0.096549 0.403842 0.287989 -0.445302 -0.847802 117 84 61 255 3
-0.049981 0.096554 0.403863 0.292613 -0.448328 -0.844618 117 87 64 255 3
-0.049416 0.096559 0.403884 0.298514 -0.453513 -0.839771 117 88 66 255 3
-0.048866 0.096595 0.404031 0.308577 -0.460073 -0.832534 117 88 65 255 3
-0.048315 0.096630 0.404178 0.314801 -0.463619 -0.828225 120 90 65 255 3
-0.047761 0.096660 0.404305 0.319349 -0.466937 -0.824613 121 90 65 255 3
-0.047215 0.096705 0.404494 0.326202 -0.471635 -0.819239 120 88 63 255 3
-0.046670 0.096756 0.404704 0.332323 -0.474661 -0.815021 119 88 63 255 3
-0.046123 0.096801 0.404894 0.340492 -0.479693 -0.808678 116 86 62 255 3
-0.045586 0.096871 0.405188 0.344984 -0.482392 -0.805161 115 87 63 255 3
-0.045056 0.096957 0.405546 0.349704 -0.484438 -0.801890 112 84 60 255 3
-0.044530 0.097052 0.405946 0.350070 -0.485702 -0.800965 109 77 54 255 3
-0.044027 0.097203 0.406577 0.352025 -0.486787 -0.799448 102 71 48 255 3
-0.043552 0.097420 0.407481 0.351548 -0.487051 -0.799497 85 76 59 255 3
0.013207 0.097616 0.408302 -0.284218 -0.443085 -0.850233 90 69 52 255 3
0.013761 0.097475 0.407713 -0.279823 -0.439183 -0.853708 97 68 48 255 3
0.014317 0.097354 0.407208 -0.272364 -0.434936 -0.858282 107 77 55 255 3
0.014878 0.097279 0.406892 -0.267528 -0.429429 -0.862566 114 85 61 255 3
0.015438 0.097203 0.406577 -0.260674 -0.424073 -0.867301 118 89 64 255 3
0.016000 0.097143 0.406324 -0.254738 -0.418693 -0.871668 118 90 65 255 3
0.016563 0.097093 0.406114 -0.246731 -0.412387 -0.876961 118 91 66 255 3
0.017125 0.097042 0.405904 -0.239306 -0.406486 -0.881761 116 89 65 255 3
0.017686 0.096987 0.405672 -0.234869 -0.401678 -0.885150 115 89 65 255 3
0.018250 0.096952 0.405525 -0.227894 -0.396831 -0.889151 115 88 65 255 3
0.018813 0.096917 0.405378 -0.221152 -0.391256 -0.893314 116 88 64 255 3
0.019375 0.096876 0.405209 -0.213668 -0.385071 -0.897812 117 87 63 255 3
0.019941 0.096856 0.405125 -0.207904 -0.379068 -0.901711 116 84 62 255 3
0.020506 0.096836 0.405041 -0.208926 -0.375372 -0.903020 115 83 61 255 3
0.021077 0.096841 0.405062 -0.203714 -0.370889 -0.906058 113 81 60 255 3
0.021651 0.096861 0.405146 -0.201177 -0.366241 -0.908513 110 78 57 255 3
0.022233 0.096911 0.405357 -0.202196 -0.362153 -0.909924 105 75 54 255 3
0.022816 0.096967 0.405588 -0.202073 -0.357498 -0.911790 99 69 49 255 3
0.023409 0.097062 0.405988 -0.201774 -0.353450 -0.913433 95 64 46 255 3
0.024022 0.097233 0.406703 -0.200638 -0.348129 -0.915724 94 66 48 255 3
0.026850 0.106151 0.444005 -0.955012 -0.258154 -0.145975 74 65 48 255 3
-0.058632 0.106660 0.443521 0.960059 -0.250031 0.125588 83 73 54 255 3
-0.052981 0.097416 0.405083 0.277647 -0.431619 -0.858264 97 72 52 255 3
-0.052337 0.097279 0.404515 0.278370 -0.437575 -0.855008 103 73 52 255 3
-0.051728 0.097203 0.404199 0.280487 -0.443781 -0.851108 110 77 54 255 3
-0.051122 0.097132 0.403905 0.288365 -0.449125 -0.845655 114 80 57 255 3
-0.050531 0.097087 0.403715 0.294830 -0.455955 -0.839750 116 83 61 255 3
-0.049958 0.097077 0.403673 0.302240 -0.460101 -0.834840 117 87 65 255 3
-0.049390 0.097077 0.403673 0.304901 -0.464773 -0.831277 115 88 66 255 3
-0.048835 0.097102 0.403779 0.316072 -0.470763 -0.823700 117 89 66 255 3
-0.048285 0.097138 0.403926 0.321137 -0.473898 -0.819934 119 89 64 255 3
-0.047729 0.097163 0.404031 0.326861 -0.478307 -0.815098 122 91 66 255 3
-0.047181 0.097203 0.404199 0.334339 -0.481685 -0.810060 122 90 65 255 3
-0.046634 0.097249 0.404389 0.341495 -0.486748 -0.804026 122 90 65 255 3
-0.046087 0.097294 0.404578 0.347545 -0.490162 -0.799345 117 86 62 255 3
-0.045546 0.097355 0.404831 0.353636 -0.492701 -0.795102 115 86 62 255 3
-0.045019 0.097446 0.405209 0.353392 -0.493734 -0.794570 112 84 61 255 3
-0.044493 0.097542 0.405609 0.357093 -0.495278 -0.791950 110 79 55 255 3
-0.043984 0.097679 0.406177 0.358073 -0.497983 -0.789808 103 69 47 255 3
-0.043485 0.097841 0.406850 0.359283 -0.497352 -0.789656 96 75 55 255 3
0.013193 0.098089 0.407881 -0.287327 -0.453292 -0.843783 100 71 53 255 3
0.013747 0.097947 0.407292 -0.283065 -0.450746 -0.846582 100 70 49 255 3
0.014306 0.097856 0.406913 -0.277926 -0.444654 -0.851493 108 80 56 255 3
0.014867 0.097780 0.406598 -0.271551 -0.439661 -0.856130 117 88 63 255 3
0.015427 0.097704 0.406282 -0.264105 -0.433675 -0.861495 121 92 67 255 3
0.015990 0.097654 0.406072 -0.256946 -0.428413 -0.866280 120 92 67 255 3
0.016552 0.097598 0.405840 -0.250251 -0.422751 -0.871009 120 92 67 255 3
0.017114 0.097547 0.405630 -0.245882 -0.416842 -0.875091 116 90 65 255 3
0.017676 0.097502 0.405441 -0.240057 -0.411913 -0.879034 116 90 66 255 3
0.018238 0.097461 0.405272 -0.232386 -0.406920 -0.883410 116 88 65 255 3
0.018801 0.097426 0.405125 -0.221727 -0.400095 -0.889248 114 87 63 255 3
0.019366 0.097401 0.405020 -0.218376 -0.394112 -0.892742 115 86 63 255 3
0.019933 0.097385 0.404957 -0.214381 -0.389298 -0.895817 115 84 61 255 3
0.020499 0.097370 0.404894 -0.208330 -0.384900 -0.899139 115 82 61 255 3
0.021073 0.097390 0.404978 -0.208868 -0.380846 -0.900739 112 79 58 255 3
0.021650 0.097426 0.405125 -0.204147 -0.374638 -0.904417 108 76 56 255 3
0.022231 0.097477 0.405335 -0.205344 -0.370046 -0.906035 104 73 52 255 3
0.022820 0.097557 0.405672 -0.202785 -0.365827 -0.908322 96 67 47 255 3
0.023424 0.097694 0.406240 -0.200616 -0.360121 -0.911080 94 65 47 255 3
0.024063 0.097972 0.407397 -0.200751 -0.354538 -0.913237 88 66 48 255 3
-0.052975 0.097975 0.405041 0.281610 -0.441671 -0.851835 92 71 52 255 3
-0.052332 0.097838 0.404473 0.283157 -0.447650 -0.848193 101 73 52 255 3
-0.051717 0.097751 0.404115 0.290910 -0.454551 -0.841875 108 76 54 255 3
-0.051109 0.097675 0.403800 0.292495 -0.458897 -0.838963 113 79 57 255 3
-0.050512 0.097619 0.403568 0.304891 -0.467041 -0.830009 115 82 59 255 3
-0.049932 0.097594 0.403463 0.305895 -0.470349 -0.827768 115 85 63 255 3
-0.049362 0.097589 0.403442 0.316044 -0.475860 -0.820776 115 87 64 255 3
-0.048804 0.097609 0.403526 0.319581 -0.480544 -0.816667 119 91 67 255 3
-0.048252 0.097639 0.403652 0.328780 -0.485199 -0.810238 121 90 66 255 3
-0.047699 0.097670 0.403779 0.335131 -0.489639 -0.804948 121 90 65 255 3
-0.047149 0.097706 0.403926 0.341350 -0.492867 -0.800352 121 89 64 255 3
-0.046600 0.097746 0.404094 0.349826 -0.496757 -0.794263 122 89 64 255 3
-0.046053 0.097792 0.404284 0.357368 -0.500552 -0.788502 121 88 63 255 3
-0.045506 0.097838 0.404473 0.358860 -0.503581 -0.785892 119 88 64 255 3
-0.044982 0.097935 0.404873 0.361494 -0.503852 -0.784510 114 85 61 255 3
-0.044456 0.098031 0.405272 0.363242 -0.504946 -0.782997 113 81 57 255 3
-0.043941 0.098153 0.405777 0.363945 -0.507209 -0.781206 108 73 50 255 3
-0.043442 0.098316 0.406451 0.364444 -0.506372 -0.781517 97 68 48 255 3
0.012624 0.098698 0.408028 -0.297858 -0.467671 -0.832205 91 75 57 255 3
0.013180 0.098561 0.407460 -0.294327 -0.465196 -0.834844 101 72 52 255 3
0.013734 0.098428 0.406913 -0.288830 -0.460506 -0.839352 104 74 52 255 3
0.014295 0.098352 0.406598 -0.283354 -0.455391 -0.843996 110 82 59 255 3
0.014856 0.098276 0.406282 -0.277976 -0.451058 -0.848101 116 89 64 255 3
0.015417 0.098214 0.406030 -0.269644 -0.445156 -0.853890 120 91 66 255 3
0.015979 0.098159 0.405798 -0.263906 -0.439451 -0.858625 122 92 67 255 3
0.016541 0.098108 0.405588 -0.257590 -0.435278 -0.862659 118 90 66 255 3
0.017102 0.098052 0.405357 -0.249331 -0.428060 -0.868676 117 90 66 255 3
0.017665 0.098011 0.405188 -0.241669 -0.421399 -0.874082 116 90 65 255 3
0.018228 0.097975 0.405041 -0.236616 -0.417028 -0.877554 116 88 65 255 3
0.018790 0.097935 0.404873 -0.227534 -0.409439 -0.883509 114 86 63 255 3
0.019356 0.097919 0.404809 -0.222385 -0.403967 -0.887331 114 85 62 255 3
0.019923 0.097909 0.404767 -0.215311 -0.398531 -0.891523 114 83 61 255 3
0.020496 0.097924 0.404831 -0.213237 -0.393659 -0.894183 113 81 60 255 3
0.021070 0.097945 0.404915 -0.208881 -0.387885 -0.897727 111 78 58 255 3
0.021650 0.097996 0.405125 -0.207628 -0.382707 -0.900237 106 74 54 255 3
0.022234 0.098057 0.405378 -0.205009 -0.378688 -0.902533 100 71 50 255 3
0.022825 0.098148 0.405756 -0.204324 -0.373437 -0.904874 93 66 46 255 3
0.023442 0.098342 0.406556 -0.201184 -0.367569 -0.907975 93 66 47 255 3
-0.057876 0.107661 0.442511 0.924597 -0.347725 0.155587 84 70 52 255 3
-0.052335 0.098412 0.404494 0.291629 -0.457858 -0.839833 97 73 52 255 3
-0.051712 0.098309 0.404073 0.293792 -0.464147 -0.835616 104 77 54 255 3
-0.051096 0.098217 0.403694 0.301925 -0.469253 -0.829845 111 79 56 255 3
-0.050494 0.098151 0.403421 0.307939 -0.475882 -0.823838 114 81 60 255 3
-0.049906 0.098110 0.403253 0.315514 -0.481929 -0.817432 115 85 63 255 3
-0.049336 0.098105 0.403232 0.320723 -0.485513 -0.813274 118 88 65 255 3
-0.048774 0.098115 0.403274 0.329899 -0.491827 -0.805775 119 90 66 255 3
