ply
format ascii 1.0
comment Created by labeled_geometry.py
element vertex 649
property float x
property float y
property float z
property float nx
property float ny
property float nz
property uchar red
property uchar green
property uchar blue
property uchar alpha
property uchar label
end_header
-0.105544 0.063326 0.500325 0.183679 -0.065624 -0.980793 115 87 64 255 3
-0.104871 0.063345 0.500470 0.185128 -0.065382 -0.980537 115 85 63 255 3
-0.104234 0.063386 0.500795 0.184641 -0.064717 -0.980673 116 83 61 255 3
-0.103594 0.063425 0.501103 0.185896 -0.064017 -0.980482 117 82 59 255 3
-0.102974 0.063477 0.501519 0.187080 -0.063925 -0.980263 116 81 57 255 3
-0.102402 0.063560 0.502169 0.186812 -0.063277 -0.980356 115 80 56 255 3
-0.101838 0.063649 0.502874 0.188449 -0.062838 -0.980071 109 76 53 255 3
-0.101335 0.063777 0.503887 0.188555 -0.062686 -0.980060 102 72 49 255 3
-0.102377 0.068761 0.543261 0.540173 0.508262 -0.670733 74 66 50 255 3
-0.095090 0.064347 0.508388 0.199336 -0.066516 -0.977671 78 66 49 255 3
-0.094325 0.064313 0.508117 0.195446 -0.069745 -0.978231 84 66 49 255 3
-0.093557 0.064276 0.507828 0.191729 -0.072721 -0.978750 85 66 49 255 3
-0.092774 0.064228 0.507448 0.187362 -0.075329 -0.979398 84 65 48 255 3
-0.092004 0.064189 0.507141 0.181490 -0.078794 -0.980231 84 64 48 255 3
-0.091281 0.064182 0.507087 0.179076 -0.077378 -0.980788 86 65 49 255 3
-0.090558 0.064175 0.507032 0.175988 -0.080550 -0.981091 87 65 49 255 3
-0.089836 0.064168 0.506978 0.167959 -0.083725 -0.982232 88 65 49 255 3
-0.089123 0.064168 0.506978 0.155534 -0.091594 -0.983575 87 64 47 255 3
-0.088410 0.064168 0.506978 0.139251 -0.100033 -0.985192 87 64 47 255 3
-0.087691 0.064164 0.506942 0.123833 -0.112388 -0.985918 87 65 47 255 3
-0.086950 0.064143 0.506779 0.110198 -0.122424 -0.986341 88 65 47 255 3
-0.086215 0.064127 0.506653 0.093882 -0.133021 -0.986657 89 64 47 255 3
-0.085503 0.064127 0.506653 0.076016 -0.149828 -0.985786 90 64 46 255 3
-0.084790 0.064127 0.506653 0.060373 -0.168245 -0.983895 91 64 44 255 3
-0.084090 0.064136 0.506725 0.045414 -0.183948 -0.981886 91 63 43 255 3
-0.083362 0.064125 0.506635 0.031889 -0.197103 -0.979864 92 64 45 255 3
-0.082614 0.064097 0.506418 0.018578 -0.210924 -0.977326 94 66 47 255 3
-0.081891 0.064088 0.506345 0.004301 -0.217917 -0.975958 93 66 48 255 3
-0.081170 0.064081 0.506291 -0.014301 -0.219702 -0.975462 96 68 49 255 3
-0.080446 0.064072 0.506219 -0.032312 -0.223544 -0.974158 99 69 49 255 3
-0.079720 0.064061 0.506128 -0.053984 -0.222826 -0.973362 100 69 49 255 3
-0.078989 0.064045 0.506002 -0.074220 -0.229524 -0.970469 101 71 50 255 3
-0.078280 0.064047 0.506020 -0.091028 -0.229621 -0.969014 103 72 51 255 3
-0.077576 0.064054 0.506074 -0.113229 -0.230561 -0.966447 103 73 51 255 3
-0.076854 0.064045 0.506002 -0.133697 -0.231979 -0.963489 103 74 52 255 3
-0.076110 0.064017 0.505785 -0.154203 -0.231271 -0.960591 100 74 51 255 3
-0.075414 0.064031 0.505893 -0.167938 -0.234056 -0.957609 99 72 49 255 3
-0.074730 0.064054 0.506074 -0.183890 -0.242171 -0.952648 99 75 57 255 3
-0.073714 0.063791 0.503995 -0.219267 -0.218885 -0.950795 112 103 89 255 3
-0.072932 0.063727 0.503489 -0.238810 -0.213145 -0.947386 106 103 92 255 4
-0.072151 0.063663 0.502983 -0.255084 -0.202590 -0.945457 99 98 86 255 4
-0.071397 0.063621 0.502657 -0.272687 -0.196301 -0.941864 98 97 86 255 4
-0.070701 0.063631 0.502730 -0.284870 -0.191102 -0.939324 96 95 84 255 4
-0.069848 0.063498 0.501681 -0.293227 -0.174271 -0.940025 100 99 88 255 4
-0.069100 0.063459 0.501374 -0.300686 -0.166982 -0.938992 98 98 86 255 4
-0.068276 0.063349 0.500506 -0.297680 -0.160909 -0.941007 100 99 88 255 4
-0.067468 0.063251 0.499729 -0.295505 -0.148109 -0.943790 106 106 94 255 4
-0.066738 0.063226 0.499530 -0.291659 -0.148884 -0.944864 106 106 94 255 4
-0.066019 0.063210 0.499403 -0.281346 -0.148220 -0.948090 108 108 96 255 4
-0.065298 0.063191 0.499259 -0.270845 -0.143550 -0.951860 110 110 99 255 4
-0.064579 0.063175 0.499132 -0.253714 -0.141690 -0.956845 113 114 103 255 4
-0.063861 0.063159 0.499006 -0.235331 -0.145970 -0.960891 111 112 101 255 4
-0.063143 0.063143 0.498879 -0.215745 -0.138834 -0.966529 110 110 99 255 4
-0.062428 0.063130 0.498771 -0.191081 -0.135209 -0.972217 107 107 97 255 4
-0.061720 0.063123 0.498716 -0.176250 -0.133020 -0.975316 108 109 98 255 4
-0.061010 0.063114 0.498644 -0.157981 -0.127777 -0.979140 107 108 97 255 4
-0.060289 0.063093 0.498481 -0.137456 -0.123592 -0.982767 108 108 98 255 4
-0.059577 0.063081 0.498391 -0.116416 -0.123481 -0.985495 110 110 100 255 4
-0.058885 0.063091 0.498463 -0.093886 -0.122682 -0.987995 112 112 101 255 4
-0.058192 0.063100 0.498536 -0.067232 -0.124472 -0.989943 110 111 100 255 4
-0.057489 0.063098 0.498518 -0.041355 -0.129471 -0.990720 110 110 99 255 4
-0.056788 0.063098 0.498518 -0.016426 -0.134259 -0.990810 111 111 100 255 4
-0.056087 0.063098 0.498518 0.008316 -0.138751 -0.990292 112 112 100 255 4
-0.055384 0.063095 0.498500 0.033050 -0.143085 -0.989158 112 112 101 255 4
-0.054679 0.063091 0.498463 0.054289 -0.148148 -0.987474 110 110 99 255 4
-0.053987 0.063102 0.498554 0.079025 -0.153059 -0.985052 109 109 97 255 4
-0.053307 0.063127 0.498753 0.105872 -0.157634 -0.981806 108 108 97 255 4
-0.052627 0.063152 0.498951 0.127419 -0.160803 -0.978727 107 107 96 255 4
-0.051957 0.063191 0.499259 0.144644 -0.166784 -0.975326 105 105 94 255 4
-0.051285 0.063228 0.499548 0.168669 -0.175584 -0.969908 101 101 90 255 4
-0.050612 0.063265 0.499837 0.183265 -0.181255 -0.966209 100 99 89 255 4
-0.049938 0.063301 0.500127 0.203495 -0.190929 -0.960279 99 99 88 255 4
-0.049264 0.063340 0.500434 0.216984 -0.200792 -0.955301 96 96 86 255 4
-0.048580 0.063365 0.500633 0.232930 -0.215541 -0.948307 96 96 86 255 4
-0.047904 0.063402 0.500922 0.242349 -0.224178 -0.943934 96 96 86 255 4
-0.047243 0.063461 0.501392 0.260215 -0.237029 -0.936005 97 97 87 255 4
-0.046584 0.063523 0.501880 0.274060 -0.248649 -0.929013 97 97 86 255 4
-0.045922 0.063585 0.502368 0.287759 -0.259571 -0.921856 97 97 86 255 3
-0.045260 0.063647 0.502856 0.303695 -0.270897 -0.913446 97 97 87 255 3
-0.044586 0.063695 0.503236 0.304367 -0.278565 -0.910913 96 97 85 255 3
-0.043910 0.063740 0.503598 0.313969 -0.290791 -0.903806 96 96 85 255 3
-0.043230 0.063782 0.503923 0.322455 -0.299578 -0.897928 95 96 86 255 3
-0.042552 0.063827 0.504284 0.324820 -0.310502 -0.893354 95 96 85 255 3
-0.041872 0.063873 0.504646 0.328563 -0.318110 -0.889299 95 96 86 255 3
-0.041192 0.063919 0.505008 0.327008 -0.328145 -0.886220 99 100 88 255 3
-0.040572 0.064061 0.506128 0.340285 -0.329144 -0.880835 108 104 90 255 3
-0.040000 0.064285 0.507900 0.369674 -0.321560 -0.871746 105 101 87 255 3
-0.112426 0.064345 0.502784 0.191499 -0.068348 -0.979110 92 65 47 255 3
-0.111478 0.064206 0.501699 0.189990 -0.067814 -0.979441 96 64 45 255 3
-0.110645 0.064132 0.501121 0.188471 -0.067012 -0.979790 98 69 48 255 3
-0.109853 0.064081 0.500723 0.187638 -0.066676 -0.979973 103 73 51 255 3
-0.109078 0.064039 0.500398 0.187358 -0.066085 -0.980066 107 78 55 255 3
-0.108339 0.064018 0.500235 0.186360 -0.065553 -0.980292 111 82 59 255 3
-0.107616 0.064007 0.500145 0.185981 -0.064897 -0.980408 113 85 61 255 3
-0.106901 0.064000 0.500090 0.185477 -0.063836 -0.980573 114 86 63 255 3
-0.106224 0.064016 0.500217 0.183748 -0.063778 -0.980902 115 87 65 255 3
-0.105544 0.064030 0.500325 0.183660 -0.063841 -0.980915 114 86 63 255 3
-0.104867 0.064046 0.500452 0.185976 -0.063215 -0.980519 115 86 63 255 3
-0.104216 0.064079 0.500705 0.185054 -0.062677 -0.980728 115 83 61 255 3
-0.103575 0.064118 0.501012 0.186958 -0.062041 -0.980407 117 82 60 255 3
-0.102934 0.064157 0.501320 0.185440 -0.061750 -0.980713 116 81 59 255 3
-0.102361 0.064240 0.501970 0.187220 -0.060745 -0.980438 115 81 57 255 3
-0.101758 0.064305 0.502477 0.187364 -0.060261 -0.980440 108 77 54 255 3
-0.101244 0.064428 0.503435 0.188671 -0.059658 -0.980227 103 71 50 255 3
-0.100702 0.064534 0.504266 0.192666 -0.056888 -0.979614 87 71 52 255 3
-0.096955 0.069471 0.542845 0.274186 0.516572 -0.811157 76 68 53 255 3
-0.090265 0.065191 0.509401 0.173124 -0.084930 -0.981231 80 68 52 255 3
-0.089510 0.065164 0.509184 0.160946 -0.089718 -0.982877 84 69 53 255 3
-0.088757 0.065136 0.508967 0.145727 -0.096412 -0.984616 85 68 53 255 3
-0.088003 0.065108 0.508750 0.132155 -0.107333 -0.985401 84 68 51 255 3
-0.087195 0.065039 0.508207 0.114692 -0.119535 -0.986183 85 66 49 255 3
-0.086452 0.065018 0.508045 0.097630 -0.129848 -0.986716 87 65 48 255 3
-0.085710 0.064997 0.507882 0.079571 -0.146910 -0.985944 86 62 45 255 3
-0.084969 0.064976 0.507719 0.061896 -0.162135 -0.984825 87 62 43 255 3
-0.084231 0.064958 0.507575 0.044913 -0.177302 -0.983131 86 61 42 255 3
-0.083514 0.064955 0.507557 0.031447 -0.195154 -0.980268 88 61 42 255 3
-0.082806 0.064960 0.507593 0.016694 -0.206119 -0.978385 90 62 43 255 3
-0.082057 0.064932 0.507376 0.003346 -0.215267 -0.976549 91 63 43 255 3
-0.081300 0.064898 0.507105 -0.014007 -0.225992 -0.974028 92 64 45 255 3
-0.080538 0.064858 0.506797 -0.032453 -0.224610 -0.973908 95 65 47 255 3
-0.079814 0.064849 0.506725 -0.052158 -0.225346 -0.972882 95 65 46 255 3
-0.079090 0.064840 0.506653 -0.073050 -0.229706 -0.970515 96 65 46 255 3
-0.078352 0.064819 0.506490 -0.092138 -0.232142 -0.968308 97 67 47 255 3
-0.077626 0.064807 0.506400 -0.114083 -0.233472 -0.965648 99 70 49 255 3
-0.076928 0.064819 0.506490 -0.133067 -0.232356 -0.963485 101 73 51 255 3
-0.076199 0.064805 0.506382 -0.151475 -0.229476 -0.961455 98 72 50 255 3
-0.075449 0.064773 0.506128 -0.170707 -0.227958 -0.958590 95 68 46 255 3
-0.074746 0.064780 0.506183 -0.187559 -0.232512 -0.954338 92 65 46 255 3
-0.073777 0.064555 0.504429 -0.218291 -0.213961 -0.952139 98 84 70 255 3
-0.072921 0.064426 0.503417 -0.241474 -0.200908 -0.949382 103 102 91 255 4
-0.072216 0.064428 0.503435 -0.255430 -0.194414 -0.947079 99 98 87 255 4
-0.071395 0.064326 0.502639 -0.270487 -0.180731 -0.945607 97 96 84 255 4
-0.070683 0.064321 0.502603 -0.285537 -0.177274 -0.941829 95 94 83 255 4
-0.069996 0.064340 0.502748 -0.294125 -0.166991 -0.941066 96 96 84 255 4
-0.069120 0.064183 0.501519 -0.300459 -0.152430 -0.941536 97 96 85 255 4
-0.068323 0.064097 0.500850 -0.302011 -0.139443 -0.943051 98 97 86 255 4
-0.067541 0.064023 0.500271 -0.297364 -0.137416 -0.944824 100 100 88 255 4
-0.066695 0.063887 0.499205 -0.289234 -0.129905 -0.948403 103 103 91 255 4
-0.065995 0.063889 0.499223 -0.281249 -0.126957 -0.951200 104 105 94 255 4
-0.065265 0.063861 0.499006 -0.267711 -0.127015 -0.955091 107 107 96 255 4
-0.064546 0.063845 0.498879 -0.247667 -0.127551 -0.960412 111 111 100 255 4
-0.063829 0.063829 0.498753 -0.230733 -0.123629 -0.965131 111 112 100 255 4
-0.063109 0.063810 0.498608 -0.209591 -0.121012 -0.970272 110 110 99 255 4
-0.062401 0.063803 0.498554 -0.186131 -0.120407 -0.975119 111 111 100 255 4
-0.061693 0.063796 0.498500 -0.170305 -0.113898 -0.978787 110 110 99 255 4
-0.060983 0.063787 0.498427 -0.154094 -0.110893 -0.981813 109 110 99 255 4
-0.060265 0.063769 0.498283 -0.133296 -0.106933 -0.985291 108 108 98 255 4
-0.059562 0.063766 0.498265 -0.111918 -0.104713 -0.988185 110 110 100 255 4
-0.058870 0.063775 0.498337 -0.095381 -0.106606 -0.989716 113 113 102 255 4
-0.058177 0.063785 0.498409 -0.071522 -0.105329 -0.991862 114 114 103 255 4
-0.057481 0.063789 0.498445 -0.042717 -0.107967 -0.993236 113 113 102 255 4
-0.056780 0.063789 0.498445 -0.021972 -0.110618 -0.993620 114 114 103 255 4
-0.056077 0.063787 0.498427 0.001417 -0.117538 -0.993067 115 114 103 255 4
-0.055374 0.063785 0.498409 0.027835 -0.124135 -0.991875 113 113 101 255 4
-0.054681 0.063794 0.498481 0.053731 -0.131574 -0.989849 112 112 101 255 4
-0.054001 0.063819 0.498680 0.072071 -0.134846 -0.988242 109 108 97 255 4
-0.053321 0.063845 0.498879 0.097525 -0.144098 -0.984746 105 104 93 255 4
-0.052642 0.063873 0.499096 0.119313 -0.151173 -0.981280 101 101 90 255 4
-0.051970 0.063910 0.499385 0.139481 -0.160529 -0.977126 101 100 89 255 4
-0.051298 0.063947 0.499675 0.160876 -0.169705 -0.972275 101 100 90 255 4
-0.050624 0.063984 0.499964 0.173699 -0.178849 -0.968422 100 100 90 255 4
-0.049952 0.064023 0.500271 0.190343 -0.188751 -0.963402 100 101 90 255 4
-0.049277 0.064060 0.500560 0.202021 -0.200383 -0.958663 100 100 89 255 4
-0.048591 0.064083 0.500741 0.217175 -0.215016 -0.952157 100 100 89 255 4
-0.047911 0.064116 0.500994 0.226426 -0.227422 -0.947106 101 101 90 255 4
-0.047250 0.064176 0.501464 0.244606 -0.239563 -0.939563 102 102 91 255 4
-0.046590 0.064238 0.501952 0.252306 -0.249800 -0.934848 102 101 91 255 3
-0.045929 0.064301 0.502441 0.270058 -0.265092 -0.925632 102 101 91 255 3
-0.045268 0.064365 0.502947 0.275422 -0.273609 -0.921564 101 101 91 255 3
-0.044610 0.064437 0.503507 0.286009 -0.287092 -0.914209 99 99 88 255 3
-0.043950 0.064507 0.504049 0.296222 -0.296514 -0.907927 97 97 86 255 3
-0.043278 0.064562 0.504483 0.302558 -0.306210 -0.902604 93 94 84 255 3
-0.042602 0.064613 0.504881 0.306495 -0.318228 -0.897102 93 93 83 255 3
-0.041925 0.064664 0.505279 0.313246 -0.325390 -0.892188 91 91 81 255 3
-0.041247 0.064715 0.505676 0.311413 -0.334638 -0.889404 90 92 81 255 3
-0.040615 0.064842 0.506671 0.327389 -0.334188 -0.883818 97 98 87 255 3
-0.040048 0.065078 0.508515 0.349842 -0.329152 -0.877080 91 95 83 255 3
-0.121295 0.070183 0.542447 0.997031 0.075728 0.013968 83 65 48 255 3
-0.111567 0.064963 0.502097 0.191089 -0.067887 -0.979222 93 63 45 255 3
-0.110697 0.064867 0.501356 0.188174 -0.066336 -0.979893 97 69 48 255 3
-0.109885 0.064804 0.500868 0.186125 -0.066377 -0.980281 102 73 50 255 3
-0.109113 0.064764 0.500560 0.188557 -0.065849 -0.979852 107 77 54 255 3
-0.108358 0.064734 0.500325 0.186807 -0.064931 -0.980249 111 82 59 255 3
-0.107635 0.064722 0.500235 0.184965 -0.064470 -0.980628 115 85 62 255 3
-0.106912 0.064710 0.500145 0.186465 -0.063377 -0.980415 115 86 63 255 3
-0.106224 0.064720 0.500217 0.185411 -0.063855 -0.980584 116 86 64 255 3
-0.105544 0.064734 0.500325 0.184353 -0.063144 -0.980830 115 86 64 255 3
-0.104867 0.064750 0.500452 0.187342 -0.062600 -0.980298 115 86 63 255 3
-0.104204 0.064776 0.500651 0.185051 -0.062556 -0.980736 116 85 63 255 3
-0.103560 0.064813 0.500940 0.188515 -0.061324 -0.980154 117 84 62 255 3
-0.102915 0.064851 0.501229 0.185989 -0.061320 -0.980636 117 83 61 255 3
-0.102317 0.064918 0.501754 0.188245 -0.059746 -0.980303 115 81 59 255 3
-0.101718 0.064986 0.502278 0.187876 -0.058773 -0.980433 110 79 56 255 3
-0.101153 0.065077 0.502983 0.191106 -0.056231 -0.979958 102 71 51 255 3
-0.100615 0.065187 0.503833 0.196404 -0.050383 -0.979228 97 72 52 255 3
-0.091537 0.070179 0.542411 0.184640 0.540671 -0.820721 71 64 49 255 3
-0.090775 0.070179 0.542411 0.177460 0.551630 -0.814992 76 65 49 255 3
-0.084498 0.065880 0.509184 0.051231 -0.172229 -0.983724 81 64 47 255 3
-0.083764 0.065866 0.509075 0.036520 -0.183107 -0.982414 85 64 46 255 3
-0.083030 0.065852 0.508967 0.021233 -0.197265 -0.980120 85 63 44 255 3
-0.082282 0.065826 0.508768 0.007471 -0.211650 -0.977317 86 63 43 255 3
-0.081494 0.065767 0.508316 -0.008062 -0.222852 -0.974819 87 62 44 255 3
-0.080742 0.065737 0.508081 -0.025304 -0.228533 -0.973207 88 62 44 255 3
-0.079979 0.065697 0.507774 -0.046277 -0.230432 -0.971988 88 61 43 255 3
-0.079183 0.065629 0.507249 -0.069574 -0.231940 -0.970239 89 62 43 255 3
-0.078459 0.065620 0.507177 -0.090405 -0.236551 -0.967404 91 63 44 255 3
-0.077723 0.065601 0.507032 -0.113738 -0.232214 -0.965992 92 66 46 255 3
-0.076994 0.065587 0.506924 -0.132373 -0.230652 -0.963990 94 68 48 255 3
-0.076281 0.065587 0.506924 -0.151290 -0.227768 -0.961890 92 66 45 255 3
-0.075546 0.065569 0.506779 -0.169200 -0.224543 -0.959662 90 63 42 255 3
-0.074799 0.065538 0.506544 -0.188450 -0.223017 -0.956426 89 59 40 255 3
-0.073857 0.065335 0.504971 -0.220281 -0.203414 -0.953991 89 69 54 255 3
-0.072984 0.065190 0.503851 -0.240552 -0.189115 -0.952035 97 93 81 255 3
-0.072198 0.065120 0.503308 -0.259820 -0.178714 -0.948976 96 94 84 255 4
-0.071392 0.065031 0.502621 -0.274361 -0.166127 -0.947168 95 93 82 255 4
-0.070663 0.065010 0.502459 -0.284408 -0.153918 -0.946267 95 94 83 255 4
-0.069979 0.065031 0.502621 -0.291668 -0.145201 -0.945435 95 95 84 255 4
-0.069140 0.064907 0.501663 -0.299233 -0.133976 -0.944728 95 94 83 255 4
-0.068419 0.064893 0.501555 -0.301802 -0.127677 -0.944783 96 95 84 255 4
-0.067587 0.064771 0.500615 -0.298570 -0.118597 -0.946990 99 98 87 255 4
-0.066772 0.064663 0.499783 -0.289882 -0.111208 -0.950579 98 98 86 255 4
-0.065985 0.064582 0.499150 -0.279692 -0.105684 -0.954255 101 101 90 255 4
-0.065250 0.064549 0.498897 -0.264782 -0.105601 -0.958509 104 104 93 255 4
-0.064518 0.064518 0.498662 -0.245971 -0.104793 -0.963596 106 106 95 255 4
-0.063794 0.064495 0.498481 -0.223386 -0.104388 -0.969124 107 106 95 255 4
-0.063081 0.064483 0.498391 -0.205079 -0.099835 -0.973640 108 108 97 255 4
-0.062374 0.064476 0.498337 -0.182069 -0.095097 -0.978676 113 113 101 255 4
-0.061666 0.064469 0.498283 -0.165716 -0.090586 -0.982004 115 115 103 255 4
-0.060959 0.064462 0.498228 -0.148200 -0.092246 -0.984646 115 116 104 255 4
-0.060239 0.064441 0.498066 -0.130079 -0.089019 -0.987499 114 114 103 255 4
-0.059547 0.064451 0.498138 -0.113095 -0.084281 -0.990003 114 114 103 255 4
-0.058855 0.064460 0.498210 -0.093999 -0.085692 -0.991877 117 117 105 255 4
-0.058162 0.064469 0.498283 -0.073526 -0.087755 -0.993425 114 114 103 255 4
-0.057470 0.064479 0.498355 -0.051104 -0.089127 -0.994708 113 113 102 255 4
-0.056771 0.064481 0.498373 -0.019903 -0.099091 -0.994879 113 113 101 255 4
-0.056068 0.064479 0.498355 -0.004984 -0.105855 -0.994369 110 110 99 255 4
-0.055374 0.064486 0.498409 0.016804 -0.110660 -0.993716 108 108 97 255 4
-0.054696 0.064514 0.498626 0.045255 -0.115295 -0.992300 106 106 95 255 4
-0.054017 0.064539 0.498825 0.065958 -0.121703 -0.990373 106 106 95 255 4
-0.053336 0.064565 0.499024 0.085477 -0.128342 -0.988039 105 105 94 255 4
-0.052656 0.064591 0.499223 0.108182 -0.142113 -0.983921 103 102 92 255 4
-0.051984 0.064628 0.499512 0.130756 -0.150430 -0.979936 103 102 92 255 4
-0.051309 0.064663 0.499783 0.147221 -0.160708 -0.975960 102 102 92 255 4
-0.050624 0.064687 0.499964 0.160031 -0.174744 -0.971522 103 103 93 255 4
-0.049939 0.064710 0.500145 0.177642 -0.190015 -0.965576 104 104 94 255 4
-0.049254 0.064734 0.500325 0.185859 -0.201574 -0.961678 106 106 95 255 4
-0.048569 0.064759 0.500524 0.196463 -0.218336 -0.955893 106 106 95 255 4
-0.047895 0.064799 0.500832 0.208344 -0.230308 -0.950553 106 106 95 255 4
-0.047223 0.064844 0.501175 0.220279 -0.243854 -0.944464 106 107 96 255 3
-0.046562 0.064904 0.501645 0.230179 -0.259176 -0.938001 106 106 96 255 3
-0.045901 0.064967 0.502133 0.240627 -0.272248 -0.931654 105 106 95 255 3
-0.045242 0.065035 0.502657 0.249068 -0.282140 -0.926478 104 105 94 255 3
-0.044585 0.065108 0.503218 0.262205 -0.297788 -0.917916 102 102 92 255 3
-0.043926 0.065180 0.503778 0.269012 -0.305187 -0.913506 100 101 90 255 3
-0.043264 0.065250 0.504321 0.269251 -0.316115 -0.909712 97 97 87 255 3
-0.042608 0.065332 0.504953 0.279548 -0.326365 -0.902961 94 94 85 255 3
-0.041977 0.065456 0.505911 0.286288 -0.334852 -0.897727 91 90 81 255 3
-0.041301 0.065512 0.506345 0.290508 -0.339020 -0.894802 90 90 81 255 3
-0.040656 0.065620 0.507177 0.303730 -0.345198 -0.888024 91 91 81 255 3
-0.111675 0.065733 0.502585 0.191241 -0.067423 -0.979225 88 63 47 255 3
-0.110753 0.065605 0.501609 0.189343 -0.067473 -0.979590 97 69 48 255 3
-0.109916 0.065527 0.501012 0.188073 -0.066726 -0.979886 102 73 50 255 3
-0.109145 0.065487 0.500705 0.187618 -0.065972 -0.980024 106 77 54 255 3
-0.108378 0.065449 0.500416 0.188105 -0.064912 -0.980001 111 82 58 255 3
-0.107655 0.065437 0.500325 0.186993 -0.064801 -0.980222 115 85 61 255 3
-0.106932 0.065425 0.500235 0.186332 -0.064132 -0.980391 116 87 63 255 3
-0.106228 0.065425 0.500235 0.185473 -0.063283 -0.980609 116 87 64 255 3
-0.105548 0.065440 0.500343 0.184574 -0.062773 -0.980812 116 87 64 255 3
-0.104867 0.065454 0.500452 0.187914 -0.061799 -0.980239 116 87 64 255 3
-0.104197 0.065475 0.500615 0.185625 -0.061236 -0.980711 115 85 63 255 3
-0.103549 0.065511 0.500886 0.188593 -0.059641 -0.980243 116 84 62 255 3
-0.102900 0.065546 0.501157 0.186608 -0.058241 -0.980707 116 83 62 255 3
-0.102276 0.065598 0.501555 0.188433 -0.055780 -0.980501 114 81 60 255 3
-0.101677 0.065667 0.502079 0.192550 -0.052159 -0.979900 110 79 58 255 3
-0.101084 0.065740 0.502639 0.195943 -0.047618 -0.979458 103 73 53 255 3
-0.100561 0.065860 0.503561 0.200881 -0.042231 -0.978705 94 67 49 255 3
-0.100143 0.066052 0.505026 0.205373 -0.037942 -0.977948 84 74 57 255 3
-0.086891 0.070885 0.541977 0.066661 0.517451 -0.853113 73 67 50 255 3
-0.081064 0.066716 0.510106 -0.018311 -0.233696 -0.972137 78 65 49 255 3
-0.080281 0.066662 0.509690 -0.037216 -0.240777 -0.969867 83 64 49 255 3
-0.079437 0.066556 0.508876 -0.060992 -0.241179 -0.968562 85 64 46 255 3
-0.078655 0.066499 0.508442 -0.084047 -0.241287 -0.966807 84 62 43 255 3
-0.077823 0.066400 0.507683 -0.111391 -0.234704 -0.965663 83 61 43 255 3
-0.077095 0.066388 0.507593 -0.132822 -0.228817 -0.964366 84 62 44 255 3
-0.076382 0.066388 0.507593 -0.147750 -0.225778 -0.962909 83 60 42 255 3
-0.075630 0.066355 0.507340 -0.167675 -0.221721 -0.960586 83 59 40 255 3
-0.074892 0.066333 0.507177 -0.187515 -0.218833 -0.957575 86 58 39 255 3
-0.074147 0.066305 0.506960 -0.207659 -0.210023 -0.955389 85 61 45 255 3
-0.072193 0.065823 0.503272 -0.260213 -0.165388 -0.951281 95 93 84 255 4
-0.071500 0.065837 0.503381 -0.273041 -0.155702 -0.949318 96 94 83 255 4
-0.070642 0.065697 0.502314 -0.284847 -0.132804 -0.949329 93 92 81 255 4
-0.069961 0.065721 0.502495 -0.293510 -0.127404 -0.947428 95 94 83 255 4
-0.069227 0.065695 0.502296 -0.299406 -0.116411 -0.946998 93 92 81 255 4
-0.068439 0.065617 0.501699 -0.302197 -0.103852 -0.947572 93 93 82 255 4
-0.067712 0.065596 0.501537 -0.302815 -0.102272 -0.947546 97 96 85 255 4
-0.066852 0.065444 0.500380 -0.291936 -0.095970 -0.951611 94 93 82 255 4
-0.065954 0.065253 0.498915 -0.276585 -0.086173 -0.957118 95 95 84 255 4
-0.065241 0.065241 0.498825 -0.266022 -0.081160 -0.960544 99 98 87 255 4
-0.064509 0.065210 0.498590 -0.246845 -0.080459 -0.965709 101 101 89 255 4
-0.063778 0.065179 0.498355 -0.223985 -0.080460 -0.971266 102 102 91 255 4
-0.063059 0.065161 0.498210 -0.200836 -0.081428 -0.976235 105 105 94 255 4
-0.062347 0.065149 0.498120 -0.178902 -0.078121 -0.980761 109 109 98 255 4
-0.061639 0.065142 0.498066 -0.164280 -0.073286 -0.983688 111 111 100 255 4
-0.060932 0.065135 0.498011 -0.144809 -0.069876 -0.986989 110 110 99 255 4
-0.060223 0.065125 0.497939 -0.131708 -0.069382 -0.988857 109 108 97 255 4
-0.059532 0.065135 0.498011 -0.112841 -0.068740 -0.991232 109 109 98 255 4
-0.058840 0.065144 0.498084 -0.093652 -0.071349 -0.993045 111 111 100 255 4
-0.058148 0.065153 0.498156 -0.077341 -0.073130 -0.994319 112 112 101 255 4
-0.057455 0.065163 0.498228 -0.055146 -0.077832 -0.995440 111 112 101 255 4
-0.056761 0.065170 0.498283 -0.030412 -0.084126 -0.995991 111 111 100 255 4
-0.056068 0.065179 0.498355 -0.008194 -0.091489 -0.995772 109 109 98 255 4
-0.055390 0.065205 0.498554 0.009023 -0.098645 -0.995082 108 108 97 255 4
-0.054710 0.065232 0.498753 0.034463 -0.105117 -0.993863 106 107 96 255 4
-0.054025 0.065250 0.498897 0.057472 -0.111642 -0.992085 107 107 96 255 4
-0.053336 0.065267 0.499024 0.076159 -0.121234 -0.989698 106 107 96 255 4
-0.052650 0.065286 0.499168 0.093112 -0.131130 -0.986983 106 106 96 255 4
-0.051967 0.065310 0.499349 0.117793 -0.143749 -0.982579 107 107 96 255 4
-0.051283 0.065333 0.499530 0.133110 -0.156946 -0.978596 106 106 96 255 4
-0.050599 0.065357 0.499711 0.142945 -0.172538 -0.974575 108 108 97 255 4
-0.049914 0.065380 0.499892 0.157306 -0.187659 -0.969556 108 108 97 255 4
-0.049229 0.065404 0.500072 0.165718 -0.202527 -0.965153 108 108 97 255 4
-0.048552 0.065440 0.500343 0.176779 -0.219489 -0.959465 108 108 97 255 4
-0.047879 0.065482 0.500669 0.189522 -0.234630 -0.953431 107 107 97 255 4
-0.047206 0.065525 0.500994 0.188510 -0.246570 -0.950614 107 107 96 255 3
-0.046533 0.065570 0.501338 0.203183 -0.262958 -0.943170 106 106 96 255 3
-0.045873 0.065633 0.501826 0.208837 -0.276061 -0.938178 105 106 95 255 3
-0.045216 0.065704 0.502368 0.222958 -0.293303 -0.929657 105 106 95 255 3
-0.044559 0.065778 0.502929 0.221067 -0.304764 -0.926417 103 104 93 255 3
-0.043901 0.065851 0.503489 0.231070 -0.315971 -0.920201 103 103 93 255 3
-0.043241 0.065924 0.504049 0.238919 -0.327356 -0.914197 102 102 92 255 3
-0.042582 0.066002 0.504646 0.244495 -0.338122 -0.908788 98 98 89 255 3
-0.041922 0.066080 0.505243 0.252614 -0.346672 -0.903330 94 93 84 255 3
-0.041291 0.066208 0.506219 0.251344 -0.356392 -0.899895 92 92 83 255 3
-0.040695 0.066397 0.507665 0.272114 -0.354922 -0.894418 89 89 79 255 3
-0.111892 0.066569 0.503561 0.192521 -0.068173 -0.978922 84 64 48 255 3
-0.110805 0.066342 0.501844 0.189888 -0.067638 -0.979473 95 66 46 255 3
-0.109964 0.066260 0.501229 0.189377 -0.066807 -0.979629 100 71 49 255 3
-0.109176 0.066210 0.500850 0.187333 -0.066305 -0.980056 106 76 54 255 3
-0.108398 0.066165 0.500506 0.188568 -0.064810 -0.979919 110 81 58 255 3
-0.107670 0.066150 0.500398 0.187705 -0.064643 -0.980096 115 85 61 255 3
-0.106947 0.066138 0.500307 0.185985 -0.064158 -0.980456 117 86 63 255 3
-0.106236 0.066134 0.500271 0.186506 -0.063091 -0.980426 117 87 64 255 3
-0.105552 0.066146 0.500362 0.185604 -0.062529 -0.980633 117 87 65 255 3
-0.104871 0.066160 0.500470 0.188698 -0.059183 -0.980250 116 88 65 255 3
-0.104186 0.066172 0.500560 0.186854 -0.059033 -0.980612 116 87 65 255 3
-0.103538 0.066208 0.500832 0.189786 -0.057732 -0.980127 116 86 64 255 3
-0.102889 0.066244 0.501103 0.188559 -0.056245 -0.980450 115 84 63 255 3
-0.102247 0.066284 0.501410 0.192512 -0.052037 -0.979914 114 83 61 255 3
-0.101644 0.066351 0.501916 0.198185 -0.048565 -0.978961 110 81 59 255 3
-0.101047 0.066423 0.502459 0.199712 -0.043391 -0.978893 105 75 55 255 3
-0.100514 0.066538 0.503326 0.205429 -0.036727 -0.977983 96 67 49 255 3
-0.099993 0.066662 0.504266 0.210818 -0.031837 -0.977007 85 69 53 255 3
-0.084540 0.071592 0.541561 -0.052019 0.428764 -0.901917 70 67 53 255 3
-0.079066 0.067565 0.511100 -0.064672 -0.248346 -0.966510 74 64 49 255 3
-0.078239 0.067472 0.510395 -0.088009 -0.246549 -0.965126 77 61 44 255 3
-0.077307 0.067286 0.508985 -0.120001 -0.229851 -0.965799 79 59 43 255 3
-0.076471 0.067180 0.508189 -0.146801 -0.223474 -0.963592 78 56 41 255 3
-0.075757 0.067180 0.508189 -0.165070 -0.221827 -0.961012 79 56 40 255 3
-0.074981 0.067125 0.507774 -0.185852 -0.216169 -0.958504 81 56 39 255 3
-0.074245 0.067106 0.507629 -0.203965 -0.206453 -0.956962 81 57 40 255 3
-0.073152 0.066760 0.505008 -0.238694 -0.171970 -0.955747 88 74 58 255 3
-0.072255 0.066588 0.503706 -0.260072 -0.147097 -0.954319 95 92 82 255 4
-0.071462 0.066509 0.503109 -0.273593 -0.131772 -0.952776 96 95 84 255 4
-0.070632 0.066394 0.502242 -0.286765 -0.111992 -0.951432 95 94 82 255 4
-0.069941 0.066408 0.502350 -0.294198 -0.109669 -0.949431 94 93 82 255 4
-0.069257 0.066430 0.502513 -0.299013 -0.098392 -0.949163 93 92 80 255 4
-0.068459 0.066342 0.501844 -0.302044 -0.085551 -0.949448 92 91 80 255 4
-0.067736 0.066325 0.501717 -0.301698 -0.076087 -0.950363 94 93 81 255 4
-0.066898 0.066193 0.500723 -0.293387 -0.069464 -0.953467 95 94 83 255 4
-0.066076 0.066076 0.499837 -0.280146 -0.070015 -0.957401 92 91 80 255 4
-0.065232 0.065933 0.498753 -0.262833 -0.066566 -0.962542 93 92 81 255 4
-0.064497 0.065899 0.498500 -0.243593 -0.062097 -0.967888 96 95 84 255 4
-0.063773 0.065876 0.498319 -0.222968 -0.062534 -0.972818 99 99 88 255 4
-0.063054 0.065856 0.498174 -0.199605 -0.062104 -0.977906 102 102 91 255 4
-0.062335 0.065837 0.498030 -0.177437 -0.062398 -0.982152 105 104 93 255 4
-0.061615 0.065816 0.497867 -0.162026 -0.061942 -0.984841 105 105 93 255 4
-0.060906 0.065806 0.497794 -0.142910 -0.056463 -0.988124 106 106 95 255 4
-0.060208 0.065809 0.497813 -0.128284 -0.054729 -0.990226 106 106 95 255 4
-0.059516 0.065818 0.497885 -0.112986 -0.056306 -0.992000 107 107 96 255 4
-0.058823 0.065825 0.497939 -0.093791 -0.057952 -0.993904 110 110 99 255 4
-0.058097 0.065797 0.497722 -0.078677 -0.059361 -0.995131 113 113 102 255 4
-0.057370 0.065766 0.497487 -0.056301 -0.066777 -0.996178 114 114 102 255 4
-0.056685 0.065782 0.497614 -0.037773 -0.072731 -0.996636 113 114 102 255 4
-0.056018 0.065821 0.497903 -0.015710 -0.080742 -0.996611 114 114 103 255 4
-0.055347 0.065856 0.498174 0.001392 -0.087048 -0.996203 112 113 102 255 4
-0.054679 0.065895 0.498463 0.022998 -0.096481 -0.995069 114 114 103 255 4
-0.053993 0.065914 0.498608 0.048558 -0.105331 -0.993251 113 114 103 255 4
-0.053306 0.065931 0.498735 0.060158 -0.113891 -0.991670 111 112 101 255 4
-0.052621 0.065952 0.498897 0.077731 -0.125045 -0.989101 111 112 101 255 4
-0.051940 0.065978 0.499096 0.101445 -0.142276 -0.984615 110 111 100 255 4
-0.051259 0.066005 0.499295 0.114136 -0.156515 -0.981059 111 111 100 255 4
-0.050575 0.066029 0.499476 0.125388 -0.170990 -0.977262 111 112 101 255 4
-0.049891 0.066052 0.499657 0.132401 -0.188573 -0.973093 110 111 100 255 4
-0.049209 0.066081 0.499873 0.146328 -0.205846 -0.967582 110 110 100 255 3
-0.048536 0.066122 0.500181 0.148146 -0.218259 -0.964581 109 109 98 255 3
-0.047864 0.066165 0.500506 0.159337 -0.235701 -0.958674 108 108 97 255 3
-0.047191 0.066208 0.500832 0.164865 -0.254597 -0.952890 107 108 97 255 3
-0.046515 0.066248 0.501139 0.173001 -0.275465 -0.945616 106 107 96 255 3
-0.045845 0.066299 0.501519 0.177764 -0.286684 -0.941389 105 106 95 255 3
-0.045190 0.066373 0.502079 0.182667 -0.297905 -0.936955 106 107 96 255 3
-0.044533 0.066447 0.502639 0.185972 -0.314065 -0.931009 106 107 96 255 3
-0.043875 0.066521 0.503200 0.196534 -0.326436 -0.924561 107 108 97 255 3
-0.043217 0.066597 0.503778 0.194160 -0.335713 -0.921737 105 106 96 255 3
-0.042559 0.066676 0.504375 0.202594 -0.349992 -0.914582 103 103 94 255 3
-0.041899 0.066755 0.504971 0.209844 -0.359452 -0.909263 97 97 87 255 3
-0.041238 0.066834 0.505568 0.209806 -0.368313 -0.905719 96 96 86 255 3
-0.120251 0.072303 0.541182 0.998224 0.018769 0.056532 80 66 51 255 3
-0.110884 0.067096 0.502206 0.190653 -0.068134 -0.979290 94 65 46 255 3
-0.110012 0.066994 0.501446 0.189994 -0.067283 -0.979477 100 70 48 255 3
-0.109208 0.066934 0.500994 0.188083 -0.066395 -0.979906 104 75 53 255 3
-0.108429 0.066888 0.500651 0.189827 -0.065387 -0.979638 109 80 57 255 3
-0.107686 0.066864 0.500470 0.188422 -0.064489 -0.979969 114 84 61 255 3
-0.106963 0.066852 0.500380 0.186948 -0.063325 -0.980327 116 86 64 255 3
-0.106240 0.066840 0.500289 0.187407 -0.061302 -0.980368 117 88 65 255 3
-0.105555 0.066852 0.500380 0.186023 -0.061238 -0.980635 116 88 65 255 3
-0.104871 0.066864 0.500470 0.189383 -0.059904 -0.980074 116 88 65 255 3
-0.104186 0.066876 0.500560 0.189149 -0.058455 -0.980207 116 89 66 255 3
-0.103526 0.066905 0.500777 0.191424 -0.056360 -0.979888 116 88 65 255 3
-0.102878 0.066941 0.501049 0.193298 -0.052211 -0.979750 115 86 65 255 3
-0.102229 0.066977 0.501320 0.195064 -0.049286 -0.979551 114 84 63 255 3
-0.101619 0.067040 0.501790 0.203161 -0.043156 -0.978194 112 82 61 255 3
-0.101018 0.067110 0.502314 0.207820 -0.038156 -0.977423 108 78 58 255 3
-0.100464 0.067212 0.503073 0.210638 -0.034155 -0.976967 98 70 51 255 3
-0.099925 0.067325 0.503923 0.214065 -0.029599 -0.976371 89 67 51 255 3
-0.082189 0.072296 0.541127 -0.129578 0.322171 -0.937771 72 66 50 255 3
-0.077032 0.068393 0.511913 -0.118749 -0.241325 -0.963152 76 63 47 255 3
-0.075934 0.068054 0.509382 -0.160224 -0.220338 -0.962174 79 60 45 255 3
-0.075130 0.067975 0.508786 -0.181462 -0.208026 -0.961143 79 58 42 255 3
-0.074370 0.067934 0.508479 -0.200622 -0.199444 -0.959152 77 54 39 255 3
-0.073293 0.067600 0.505984 -0.236133 -0.168524 -0.956996 81 61 46 255 3
-0.072369 0.067402 0.504501 -0.258398 -0.140590 -0.955753 88 80 69 255 4
-0.071464 0.067219 0.503127 -0.275242 -0.113025 -0.954708 93 91 81 255 4
-0.070630 0.067098 0.502224 -0.287400 -0.094111 -0.953176 95 94 83 255 4
-0.069921 0.067096 0.502206 -0.293396 -0.081211 -0.952535 94 93 82 255 4
-0.069239 0.067120 0.502386 -0.297366 -0.074995 -0.951814 95 94 83 255 4
-0.068479 0.067067 0.501989 -0.300915 -0.062710 -0.951587 93 92 81 255 4
-0.067756 0.067050 0.501862 -0.300559 -0.055051 -0.952173 91 90 79 255 4
-0.067033 0.067033 0.501735 -0.297270 -0.049931 -0.953487 97 96 85 255 4
-0.066162 0.066866 0.500488 -0.283263 -0.042767 -0.958088 93 92 81 255 4
-0.065260 0.066663 0.498970 -0.263289 -0.040699 -0.963858 92 90 80 255 4
-0.064488 0.066591 0.498427 -0.242501 -0.044499 -0.969130 93 92 81 255 4
-0.063766 0.066569 0.498265 -0.220056 -0.042935 -0.974542 93 93 82 255 4
-0.063047 0.066550 0.498120 -0.199433 -0.045550 -0.978852 96 96 85 255 4
-0.062329 0.066530 0.497975 -0.177858 -0.044633 -0.983043 98 98 87 255 4
-0.061604 0.066504 0.497776 -0.158365 -0.043385 -0.986427 101 101 90 255 4
-0.060877 0.066475 0.497559 -0.142327 -0.042536 -0.988905 103 103 92 255 4
-0.060160 0.066456 0.497415 -0.126581 -0.045025 -0.990934 105 105 94 255 4
-0.059456 0.066451 0.497379 -0.110599 -0.044424 -0.992872 107 107 96 255 4
-0.058752 0.066446 0.497343 -0.097417 -0.046733 -0.994146 111 111 99 255 4
-0.058027 0.066417 0.497126 -0.081437 -0.052235 -0.995309 112 113 101 255 4
-0.057299 0.066383 0.496873 -0.062976 -0.061258 -0.996133 115 115 103 255 4
-0.056611 0.066395 0.496963 -0.042304 -0.066927 -0.996861 112 112 101 255 4
-0.055942 0.066431 0.497234 -0.026237 -0.076854 -0.996697 112 112 101 255 4
-0.055275 0.066470 0.497523 -0.008202 -0.086025 -0.996259 114 114 103 255 4
-0.054605 0.066506 0.497794 0.013657 -0.095942 -0.995293 115 115 104 255 4
-0.053936 0.066545 0.498084 0.030628 -0.107041 -0.993783 113 114 103 255 4
-0.053267 0.066584 0.498373 0.049053 -0.112893 -0.992396 112 113 101 255 4
-0.052591 0.066615 0.498608 0.066599 -0.128533 -0.989466 111 112 101 255 4
-0.051912 0.066644 0.498825 0.081941 -0.141141 -0.986593 111 112 101 255 4
-0.051231 0.066671 0.499024 0.090510 -0.157710 -0.983329 110 111 100 255 4
-0.050549 0.066697 0.499223 0.106494 -0.177640 -0.978317 110 110 100 255 4
-0.049867 0.066724 0.499422 0.107841 -0.191471 -0.975556 110 110 99 255 3
-0.049193 0.066762 0.499711 0.122786 -0.210630 -0.969824 109 110 99 255 3
-0.048519 0.066801 0.500000 0.127234 -0.223954 -0.966259 109 110 99 255 3
-0.047843 0.066840 0.500289 0.133850 -0.241478 -0.961131 109 110 99 255 3
-0.047167 0.066878 0.500578 0.139216 -0.259311 -0.955707 110 111 100 255 3
-0.046490 0.066917 0.500868 0.130954 -0.276130 -0.952157 110 111 100 255 3
-0.045808 0.066951 0.501121 0.138541 -0.295198 -0.945338 109 110 99 255 3
-0.045126 0.066985 0.501374 0.142874 -0.313571 -0.938755 109 110 99 255 3
-0.044469 0.067057 0.501916 0.149937 -0.326873 -0.933099 110 110 100 255 3
-0.043811 0.067129 0.502459 0.149991 -0.339537 -0.928557 109 110 99 255 3
-0.043151 0.067202 0.503001 0.151259 -0.355663 -0.922293 107 108 98 255 3
-0.042513 0.067313 0.503833 0.154206 -0.357526 -0.921084 107 106 97 255 3
-0.041859 0.067400 0.504483 0.154160 -0.369841 -0.916217 101 100 90 255 3
-0.041197 0.067477 0.505062 0.158961 -0.379823 -0.911299 99 98 88 255 3
-0.110960 0.067848 0.502549 0.191563 -0.069314 -0.979030 93 66 48 255 3
-0.110051 0.067724 0.501627 0.190476 -0.067889 -0.979342 99 68 46 255 3
-0.109228 0.067651 0.501085 0.188723 -0.066799 -0.979756 103 73 51 255 3
-0.108452 0.067607 0.500759 0.186934 -0.065027 -0.980218 108 79 56 255 3
-0.107698 0.067575 0.500524 0.188683 -0.064262 -0.979933 113 84 61 255 3
-0.106970 0.067560 0.500416 0.188136 -0.063541 -0.980085 114 85 62 255 3
-0.106248 0.067548 0.500325 0.188792 -0.063011 -0.979993 115 86 64 255 3
-0.105555 0.067555 0.500380 0.187271 -0.061725 -0.980367 115 87 65 255 3
-0.104871 0.067568 0.500470 0.191187 -0.059260 -0.979763 114 87 65 255 3
-0.104186 0.067580 0.500560 0.190716 -0.056966 -0.979991 115 88 65 255 3
-0.103519 0.067604 0.500741 0.193969 -0.053296 -0.979559 116 89 66 255 3
-0.102867 0.067638 0.500994 0.197017 -0.050916 -0.979077 117 89 66 255 3
-0.102217 0.067675 0.501265 0.203508 -0.045552 -0.978013 115 86 64 255 3
-0.101593 0.067729 0.501663 0.206773 -0.041920 -0.977490 112 83 61 255 3
-0.100986 0.067795 0.502151 0.210338 -0.036568 -0.976945 108 80 59 255 3
-0.100413 0.067885 0.502820 0.212836 -0.031661 -0.976575 98 71 52 255 3
-0.099874 0.068000 0.503670 0.214005 -0.028791 -0.976408 92 67 50 255 3
-0.079844 0.073001 0.540712 -0.146741 0.301383 -0.942144 69 63 48 255 3
-0.074618 0.068878 0.510178 -0.189139 -0.188046 -0.963776 71 58 44 255 3
-0.073448 0.068456 0.507050 -0.231419 -0.160182 -0.959576 73 56 42 255 3
-0.072680 0.068405 0.506671 -0.248935 -0.141567 -0.958118 74 68 56 255 3
-0.071526 0.067985 0.503561 -0.273979 -0.097052 -0.956826 81 79 69 255 4
-0.070726 0.067897 0.502911 -0.286928 -0.084005 -0.954262 89 88 77 255 4
-0.069901 0.067782 0.502061 -0.293442 -0.061622 -0.953989 93 91 81 255 4
-0.069219 0.067807 0.502242 -0.298917 -0.054066 -0.952746 95 94 83 255 4
-0.068535 0.067829 0.502404 -0.300349 -0.045923 -0.952723 96 95 83 255 4
-0.067775 0.067775 0.502007 -0.300551 -0.035642 -0.953100 93 92 80 255 4
-0.067052 0.067758 0.501880 -0.296348 -0.028273 -0.954661 94 92 81 255 4
-0.066287 0.067697 0.501428 -0.289017 -0.024483 -0.957011 94 93 82 255 4
-0.065380 0.067490 0.499892 -0.268525 -0.023746 -0.962980 91 90 80 255 4
-0.064502 0.067306 0.498536 -0.244870 -0.022403 -0.969297 93 92 81 255 4
-0.063796 0.067302 0.498500 -0.225272 -0.023872 -0.974003 94 93 82 255 4
-0.063091 0.067297 0.498463 -0.204533 -0.028645 -0.978440 94 93 82 255 4
-0.062387 0.067294 0.498445 -0.182547 -0.032456 -0.982661 96 95 84 255 4
-0.061682 0.067289 0.498409 -0.162127 -0.033864 -0.986189 97 96 85 255 4
-0.060977 0.067284 0.498373 -0.147586 -0.028082 -0.988650 99 98 87 255 4
-0.060258 0.067265 0.498228 -0.132539 -0.031099 -0.990690 98 96 86 255 4
-0.059529 0.067233 0.497993 -0.114715 -0.035639 -0.992759 100 99 88 255 4
-0.058799 0.067199 0.497740 -0.098682 -0.038792 -0.994363 103 103 92 255 4
-0.058072 0.067167 0.497505 -0.084469 -0.044268 -0.995442 105 105 94 255 4
-0.057345 0.067136 0.497270 -0.071371 -0.052467 -0.996069 109 108 96 255 4
-0.056619 0.067104 0.497035 -0.051920 -0.064496 -0.996566 108 108 96 255 4
-0.055910 0.067092 0.496945 -0.033929 -0.077894 -0.996384 107 106 96 255 4
-0.055237 0.067123 0.497180 -0.016315 -0.085752 -0.996183 108 108 97 255 4
-0.054568 0.067160 0.497451 0.002294 -0.098806 -0.995104 110 110 98 255 4
-0.053899 0.067199 0.497740 0.018700 -0.107282 -0.994053 110 111 99 255 4
-0.053228 0.067236 0.498011 0.033255 -0.118508 -0.992396 112 113 101 255 4
-0.052556 0.067272 0.498283 0.053703 -0.131521 -0.989858 111 112 101 255 4
-0.051878 0.067302 0.498500 0.060785 -0.145500 -0.987489 112 112 101 255 4
-0.051198 0.067328 0.498698 0.071188 -0.163054 -0.984046 113 114 102 255 3
-0.050518 0.067358 0.498915 0.084903 -0.184319 -0.979193 113 114 103 255 3
-0.049835 0.067382 0.499096 0.085183 -0.198052 -0.976483 113 114 103 255 3
-0.049154 0.067411 0.499313 0.096935 -0.215932 -0.971585 112 113 102 255 3
-0.048480 0.067450 0.499602 0.099116 -0.231070 -0.967875 113 114 103 255 3
-0.047805 0.067490 0.499892 0.098898 -0.248736 -0.963509 113 114 103 255 3
-0.047128 0.067526 0.500163 0.103028 -0.269166 -0.957567 109 110 99 255 3
-0.046451 0.067565 0.500452 0.103898 -0.290132 -0.951330 108 109 98 255 3
-0.045767 0.067594 0.500669 0.104928 -0.307488 -0.945749 108 109 98 255 3
-0.045078 0.067616 0.500832 0.104566 -0.324466 -0.940100 108 109 98 255 3
-0.044389 0.067641 0.501012 0.100831 -0.340546 -0.934806 108 109 98 255 3
-0.043729 0.067709 0.501519 0.102613 -0.354619 -0.929363 108 109 99 255 3
-0.043070 0.067782 0.502061 0.106082 -0.367807 -0.923831 108 108 98 255 3
-0.042410 0.067856 0.502603 0.103121 -0.376562 -0.920634 106 106 96 255 3
-0.041757 0.067943 0.503254 0.105317 -0.389376 -0.915038 103 103 92 255 3
-0.041152 0.068114 0.504519 0.106300 -0.391553 -0.913995 101 101 91 255 3
-0.111060 0.068617 0.503001 0.191394 -0.070299 -0.978993 91 67 49 255 3
-0.110091 0.068454 0.501808 0.190022 -0.068473 -0.979389 99 67 46 255 3
-0.109251 0.068370 0.501193 0.189123 -0.067421 -0.979636 103 71 49 255 3
-0.108472 0.068323 0.500850 0.187704 -0.066287 -0.979986 107 77 55 255 3
-0.107705 0.068284 0.500560 0.189432 -0.065815 -0.979686 111 82 59 255 3
-0.106982 0.068271 0.500470 0.189105 -0.064990 -0.979804 113 85 62 255 3
-0.106255 0.068257 0.500362 0.189057 -0.062548 -0.979972 114 85 63 255 3
-0.105555 0.068259 0.500380 0.188937 -0.059990 -0.980155 114 86 64 255 3
-0.104871 0.068271 0.500470 0.191324 -0.059672 -0.979711 114 87 64 255 3
-0.104186 0.068284 0.500560 0.193097 -0.057067 -0.979519 115 88 65 255 3
-0.103511 0.068303 0.500705 0.198387 -0.053174 -0.978680 117 89 66 255 3
-0.102859 0.068338 0.500958 0.201254 -0.048438 -0.978341 117 89 66 255 3
-0.102206 0.068373 0.501211 0.206418 -0.045337 -0.977413 115 86 64 255 3
-0.101571 0.068419 0.501555 0.211259 -0.040529 -0.976589 112 84 61 255 3
-0.100964 0.068486 0.502043 0.213635 -0.037305 -0.976201 109 81 58 255 3
-0.100363 0.068558 0.502567 0.216084 -0.033750 -0.975791 101 73 52 255 3
-0.099828 0.068676 0.503435 0.216062 -0.030828 -0.975893 94 68 49 255 3
-0.099429 0.068890 0.505008 0.217647 -0.028811 -0.975602 81 72 55 255 3
-0.078261 0.073702 0.540278 -0.191514 0.215262 -0.957593 68 63 49 255 3
-0.072501 0.068947 0.505423 -0.257585 -0.112562 -0.959677 72 69 57 255 3
-0.071734 0.068893 0.505026 -0.271131 -0.087390 -0.958567 74 72 62 255 4
-0.070736 0.068614 0.502983 -0.286167 -0.061964 -0.956174 83 82 72 255 4
-0.069883 0.068471 0.501934 -0.295015 -0.040048 -0.954653 93 92 81 255 4
-0.069200 0.068493 0.502097 -0.298339 -0.032187 -0.953917 93 92 81 255 4
-0.068518 0.068518 0.502278 -0.299820 -0.025149 -0.953664 93 92 81 255 4
-0.067795 0.068501 0.502151 -0.299677 -0.018919 -0.953853 93 93 81 255 4
-0.067071 0.068484 0.502025 -0.297086 -0.011159 -0.954786 94 93 82 255 4
-0.066349 0.068466 0.501898 -0.291374 -0.004624 -0.956598 94 93 82 255 4
-0.065473 0.068289 0.500597 -0.271623 -0.003289 -0.962398 91 90 79 255 4
-0.064624 0.068136 0.499476 -0.253189 -0.004927 -0.967404 92 91 81 255 4
-0.063917 0.068131 0.499440 -0.237494 -0.006255 -0.971369 93 92 81 255 4
-0.063212 0.068128 0.499422 -0.215361 -0.008194 -0.976500 94 93 82 255 4
-0.062498 0.068116 0.499331 -0.191819 -0.012680 -0.981348 96 95 84 255 4
-0.061767 0.068084 0.499096 -0.172244 -0.017808 -0.984893 98 96 85 255 4
-0.061036 0.068052 0.498861 -0.151671 -0.019823 -0.988232 98 97 86 255 4
-0.060304 0.068017 0.498608 -0.133494 -0.023240 -0.990777 97 95 84 255 4
-0.059575 0.067985 0.498373 -0.119653 -0.025322 -0.992493 99 97 86 255 4
-0.058846 0.067953 0.498138 -0.102606 -0.031112 -0.994235 101 100 89 255 4
-0.058116 0.067919 0.497885 -0.088604 -0.036457 -0.995400 103 102 90 255 4
-0.057389 0.067887 0.497650 -0.078389 -0.043422 -0.995977 105 104 92 255 4
-0.056662 0.067855 0.497415 -0.062200 -0.055384 -0.996526 107 106 94 255 4
-0.055938 0.067825 0.497198 -0.042906 -0.071884 -0.996490 108 107 96 255 4
-0.055219 0.067800 0.497017 -0.026639 -0.086060 -0.995934 109 108 96 255 4
-0.054536 0.067820 0.497162 -0.008493 -0.097002 -0.995248 110 109 98 255 4
-0.053862 0.067852 0.497397 0.003753 -0.109382 -0.993993 110 110 98 255 4
-0.053192 0.067889 0.497668 0.019905 -0.121858 -0.992348 111 112 100 255 4
-0.052522 0.067929 0.497957 0.033088 -0.134021 -0.990426 111 112 100 255 4
-0.051844 0.067958 0.498174 0.040141 -0.150047 -0.987864 111 112 101 255 4
-0.051164 0.067985 0.498373 0.051049 -0.171896 -0.983792 112 113 102 255 4
-0.050484 0.068012 0.498572 0.060204 -0.192459 -0.979457 112 112 101 255 3
-0.049802 0.068040 0.498771 0.066455 -0.211695 -0.975074 111 112 101 255 3
-0.049120 0.068067 0.498970 0.064676 -0.228061 -0.971496 110 111 100 255 3
-0.048440 0.068096 0.499186 0.076447 -0.248352 -0.965649 110 111 100 255 3
-0.047765 0.068136 0.499476 0.069923 -0.264581 -0.961825 109 110 99 255 3
-0.047090 0.068175 0.499765 0.066960 -0.281813 -0.957130 107 108 97 255 3
-0.046412 0.068212 0.500036 0.072263 -0.299181 -0.951456 106 107 96 255 3
-0.045724 0.068234 0.500199 0.070599 -0.317146 -0.945745 107 108 97 255 3
-0.045037 0.068259 0.500380 0.065207 -0.333523 -0.940484 107 108 97 255 3
-0.044349 0.068284 0.500560 0.063406 -0.349247 -0.934883 107 108 97 255 3
-0.043661 0.068308 0.500741 0.057312 -0.367284 -0.928341 108 109 98 255 3
-0.042991 0.068363 0.501139 0.055146 -0.377423 -0.924397 107 108 97 255 3
-0.042332 0.068437 0.501681 0.058368 -0.390673 -0.918677 108 109 98 255 3
-0.041671 0.068511 0.502224 0.052213 -0.399536 -0.915229 106 106 95 255 3
-0.041011 0.068587 0.502784 0.055121 -0.414453 -0.908400 104 104 93 255 3
-0.119207 0.074409 0.539898 0.996216 -0.027065 0.082589 89 70 52 255 3
-0.110131 0.069185 0.501989 0.191573 -0.071052 -0.978903 97 67 46 255 3
-0.109287 0.069097 0.501356 0.189922 -0.068980 -0.979373 103 70 48 255 3
-0.108495 0.069043 0.500958 0.189436 -0.068236 -0.979519 107 75 53 255 3
-0.107717 0.068995 0.500615 0.190359 -0.066158 -0.979483 110 79 57 255 3
-0.106990 0.068980 0.500506 0.190223 -0.063937 -0.979657 113 84 61 255 3
-0.106263 0.068965 0.500398 0.188931 -0.063165 -0.979957 114 86 63 255 3
-0.105555 0.068963 0.500380 0.190615 -0.062005 -0.979705 114 86 63 255 3
-0.104871 0.068975 0.500470 0.193959 -0.058448 -0.979267 115 87 65 255 3
-0.104186 0.068988 0.500560 0.199605 -0.055595 -0.978298 115 87 65 255 3
-0.103504 0.069003 0.500669 0.201557 -0.052775 -0.978054 117 89 66 255 3
-0.102852 0.069038 0.500922 0.206394 -0.049972 -0.977192 117 89 66 255 3
-0.102199 0.069072 0.501175 0.209904 -0.045887 -0.976645 115 87 65 255 3
-0.101549 0.069110 0.501446 0.212757 -0.041915 -0.976206 114 85 62 255 3
-0.100938 0.069175 0.501916 0.215492 -0.038776 -0.975735 110 81 58 255 3
-0.100330 0.069242 0.502404 0.217254 -0.035387 -0.975474 105 74 53 255 3
-0.099788 0.069356 0.503236 0.216466 -0.033608 -0.975712 93 68 48 255 3
-0.099326 0.069528 0.504483 0.220252 -0.031992 -0.974918 82 71 53 255 3
-0.070871 0.069454 0.503941 -0.285502 -0.046547 -0.957247 76 75 65 255 3
-0.069999 0.069292 0.502766 -0.294360 -0.027621 -0.955295 86 86 75 255 4
-0.069232 0.069232 0.502332 -0.298800 -0.015163 -0.954195 91 89 79 255 4
-0.068511 0.069217 0.502224 -0.300131 -0.004843 -0.953886 90 89 78 255 4
-0.067814 0.069227 0.502296 -0.299710 0.001088 -0.954030 92 91 80 255 4
-0.067091 0.069209 0.502169 -0.296542 0.006870 -0.954995 95 94 83 255 4
-0.066368 0.069192 0.502043 -0.290058 0.010936 -0.956947 95 94 83 255 4
-0.065645 0.069175 0.501916 -0.281828 0.013420 -0.959371 92 91 80 255 4
-0.064745 0.068968 0.500416 -0.258363 0.009252 -0.966004 92 91 80 255 4
-0.064016 0.068940 0.500217 -0.244707 0.010285 -0.969543 94 93 82 255 4
-0.063287 0.068913 0.500018 -0.226911 0.007433 -0.973887 94 92 82 255 4
-0.062566 0.068893 0.499873 -0.200913 -0.000342 -0.979609 94 93 82 255 4
-0.061845 0.068873 0.499729 -0.178382 -0.006509 -0.983940 96 94 83 255 4
-0.061123 0.068851 0.499566 -0.156026 -0.013297 -0.987663 97 96 85 255 4
-0.060403 0.068831 0.499422 -0.140941 -0.015033 -0.989904 96 94 84 255 4
-0.059672 0.068798 0.499186 -0.124278 -0.018455 -0.992076 96 95 84 255 4
-0.058919 0.068739 0.498753 -0.109197 -0.024941 -0.993707 97 96 85 255 4
-0.058167 0.068679 0.498319 -0.097220 -0.033430 -0.994701 99 98 87 255 4
-0.057445 0.068654 0.498138 -0.082769 -0.040226 -0.995757 101 100 89 255 4
-0.056738 0.068646 0.498084 -0.071492 -0.050717 -0.996151 102 101 89 255 4
-0.056034 0.068641 0.498048 -0.054859 -0.063436 -0.996477 103 102 91 255 4
-0.055327 0.068634 0.497993 -0.036021 -0.079482 -0.996185 103 102 91 255 4
-0.054621 0.068626 0.497939 -0.020935 -0.096420 -0.995120 103 102 91 255 4
-0.053917 0.068621 0.497903 -0.006241 -0.108966 -0.994026 104 104 92 255 4
-0.053211 0.068614 0.497849 0.009572 -0.126932 -0.991865 104 104 93 255 4
-0.052507 0.068609 0.497813 0.018394 -0.144104 -0.989392 105 105 93 255 4
-0.051811 0.068614 0.497849 0.023727 -0.158162 -0.987128 107 107 96 255 4
