ply
format ascii 1.0
comment Created by labeled_geometry.py
element vertex 648
property float x
property float y
property float z
property float nx
property float ny
property float nz
property uchar red
property uchar green
property uchar blue
property uchar alpha
property uchar label
end_header
-0.055581 0.002711 0.481969 0.011927 0.262231 -0.964931 110 86 62 255 4
-0.054917 0.002712 0.482098 0.020835 0.257746 -0.965988 111 87 63 255 4
-0.054252 0.002713 0.482210 0.026602 0.253921 -0.966859 111 88 63 255 4
-0.053581 0.002713 0.482274 0.033567 0.245103 -0.968916 111 87 62 255 4
-0.052906 0.002713 0.482306 0.039245 0.234154 -0.971407 112 88 63 255 4
-0.052231 0.002713 0.482338 0.042457 0.219643 -0.974656 113 88 63 255 4
-0.051556 0.002713 0.482370 0.044736 0.204087 -0.977930 113 88 63 255 4
-0.050890 0.002714 0.482482 0.047626 0.184974 -0.981589 114 89 63 255 4
-0.050221 0.002715 0.482578 0.050000 0.162054 -0.985514 115 89 63 255 4
-0.049546 0.002715 0.482611 0.056334 0.137274 -0.988930 115 89 63 255 4
-0.048867 0.002715 0.482611 0.055365 0.113834 -0.991956 115 88 62 255 4
-0.048189 0.002715 0.482611 0.065408 0.079187 -0.994712 115 88 62 255 4
-0.047510 0.002715 0.482611 0.075715 0.043882 -0.996163 117 89 63 255 4
-0.046830 0.002715 0.482594 0.083908 0.015166 -0.996358 118 89 63 255 4
-0.046146 0.002714 0.482546 0.100502 -0.023170 -0.994667 120 91 65 255 4
-0.045466 0.002714 0.482530 0.119050 -0.061521 -0.990980 120 90 65 255 4
-0.044788 0.002714 0.482530 0.127747 -0.089120 -0.987795 122 91 66 255 4
-0.044108 0.002714 0.482514 0.148131 -0.125810 -0.980933 122 92 66 255 4
-0.043429 0.002714 0.482514 0.164204 -0.159181 -0.973498 124 95 68 255 4
-0.042750 0.002714 0.482514 0.178639 -0.188235 -0.965741 124 97 70 255 4
-0.042066 0.002714 0.482450 0.194355 -0.220104 -0.955919 124 98 71 255 4
-0.041384 0.002714 0.482402 0.229205 -0.252743 -0.939993 126 99 72 255 4
-0.040708 0.002714 0.482434 0.250198 -0.284541 -0.925439 127 101 74 255 4
-0.040033 0.002714 0.482482 0.260249 -0.298963 -0.918091 129 103 75 255 2
-0.039360 0.002714 0.482546 0.264408 -0.309753 -0.913314 131 105 77 255 2
-0.038687 0.002715 0.482611 0.262263 -0.317721 -0.911193 133 107 79 255 2
-0.038026 0.002716 0.482835 0.247152 -0.321718 -0.914009 133 106 78 255 2
-0.037371 0.002718 0.483155 0.255137 -0.340453 -0.904984 134 106 79 255 2
-0.036725 0.002720 0.483588 0.249503 -0.348331 -0.903556 132 104 78 255 2
-0.036084 0.002723 0.484117 0.235509 -0.361431 -0.902166 127 100 74 255 2
-0.035442 0.002726 0.484646 0.211445 -0.373886 -0.903050 122 96 69 255 2
-0.034803 0.002730 0.485239 0.189175 -0.384322 -0.903609 115 89 63 255 2
-0.034185 0.002735 0.486153 0.168019 -0.404115 -0.899145 111 86 61 255 2
-0.033600 0.002743 0.487595 0.137727 -0.421211 -0.896444 93 79 57 255 2
-0.007387 0.002686 0.477546 -0.039664 -0.575254 -0.817013 120 91 71 255 2
-0.006717 0.002687 0.477594 -0.031713 -0.576096 -0.816767 113 82 59 255 2
-0.006048 0.002688 0.477866 -0.034936 -0.576370 -0.816442 110 79 58 255 2
-0.005380 0.002690 0.478203 -0.025778 -0.577378 -0.816070 115 85 64 255 2
-0.004681 0.002675 0.475462 -0.033156 -0.573469 -0.818556 115 94 72 255 2
-0.004013 0.002676 0.475639 -0.038041 -0.573518 -0.818309 108 94 71 255 2
-0.003345 0.002676 0.475671 -0.027705 -0.574603 -0.817963 109 97 77 255 2
-0.159298 0.003705 0.526846 -0.668490 -0.679716 -0.301840 98 91 73 255 3
-0.149692 0.003497 0.497388 -0.337711 -0.557784 -0.758174 116 98 76 255 3
-0.148949 0.003496 0.497243 -0.325117 -0.549347 -0.769751 127 100 75 255 3
-0.148212 0.003496 0.497115 -0.323816 -0.547832 -0.771378 130 100 75 255 3
-0.147508 0.003495 0.497099 -0.311046 -0.541128 -0.781301 134 104 79 255 3
-0.146832 0.003496 0.497179 -0.303941 -0.538851 -0.785659 136 106 81 255 3
-0.146152 0.003496 0.497243 -0.271306 -0.526558 -0.805686 135 105 80 255 3
-0.145443 0.003496 0.497211 -0.238556 -0.513035 -0.824552 135 105 80 255 3
-0.144739 0.003496 0.497195 -0.236455 -0.511852 -0.825891 136 106 80 255 3
-0.144031 0.003496 0.497163 -0.223862 -0.506439 -0.832709 135 106 80 255 3
-0.143382 0.003497 0.497339 -0.213988 -0.496479 -0.841260 134 105 79 255 3
-0.142729 0.003498 0.497500 -0.201230 -0.489908 -0.848231 134 106 79 255 3
-0.142061 0.003499 0.497612 -0.199584 -0.485294 -0.851267 134 106 79 255 3
-0.141398 0.003500 0.497740 -0.192085 -0.474930 -0.858804 135 107 79 255 3
-0.140743 0.003501 0.497900 -0.190619 -0.473172 -0.860100 136 107 79 255 3
-0.140097 0.003502 0.498093 -0.184973 -0.466567 -0.864928 135 107 78 255 3
-0.139446 0.003504 0.498269 -0.181274 -0.459950 -0.869244 133 105 77 255 3
-0.138817 0.003505 0.498525 -0.174648 -0.451763 -0.874876 129 102 76 255 3
-0.138187 0.003507 0.498782 -0.163248 -0.440719 -0.882676 126 100 75 255 3
-0.137565 0.003509 0.499070 -0.148824 -0.429769 -0.890590 122 97 72 255 3
-0.136977 0.003512 0.499487 -0.135600 -0.419224 -0.897699 122 97 72 255 3
-0.136419 0.003516 0.500016 -0.112335 -0.399024 -0.910033 112 84 60 255 3
-0.135986 0.003523 0.501010 -0.073627 -0.363293 -0.928761 88 68 48 255 3
-0.101518 0.003407 0.484470 -0.251630 -0.475985 -0.842687 98 98 87 255 4
-0.100726 0.003403 0.483941 -0.221989 -0.468575 -0.855078 99 98 87 255 4
-0.099970 0.003400 0.483572 -0.187627 -0.456810 -0.869552 100 100 89 255 4
-0.099247 0.003399 0.483364 -0.166723 -0.447584 -0.878563 102 102 90 255 4
-0.098524 0.003397 0.483155 -0.153525 -0.436894 -0.886315 104 104 93 255 4
-0.097608 0.003389 0.481985 -0.134043 -0.431036 -0.892323 104 104 92 255 4
-0.096685 0.003381 0.480767 -0.115438 -0.425785 -0.897431 105 105 94 255 4
-0.095891 0.003376 0.480174 -0.091272 -0.423549 -0.901263 109 110 99 255 4
-0.095247 0.003378 0.480335 -0.083951 -0.406721 -0.909687 112 112 100 255 4
-0.094606 0.003379 0.480511 -0.077476 -0.395011 -0.915404 112 113 101 255 4
-0.093956 0.003380 0.480639 -0.068267 -0.385026 -0.920377 111 111 100 255 4
-0.093295 0.003380 0.480719 -0.057707 -0.365030 -0.929206 112 112 101 255 4
-0.092635 0.003381 0.480799 -0.051749 -0.349829 -0.935383 112 112 101 255 4
-0.091965 0.003381 0.480831 -0.044095 -0.339924 -0.939419 109 109 98 255 4
-0.091295 0.003381 0.480864 -0.041742 -0.323135 -0.945432 107 107 96 255 4
-0.090624 0.003382 0.480896 -0.027115 -0.306355 -0.951531 106 106 95 255 4
-0.089933 0.003381 0.480815 -0.007415 -0.286437 -0.958070 105 105 95 255 4
-0.089233 0.003380 0.480687 0.006325 -0.272474 -0.962142 105 105 95 255 4
-0.088483 0.003377 0.480287 0.030843 -0.259571 -0.965231 103 103 93 255 4
-0.087778 0.003376 0.480126 0.059996 -0.248199 -0.966849 103 103 93 255 4
-0.087077 0.003375 0.479982 0.082480 -0.229898 -0.969713 106 107 97 255 4
-0.086379 0.003374 0.479854 0.103940 -0.211540 -0.971827 115 115 103 255 4
-0.085759 0.003376 0.480158 0.116671 -0.192613 -0.974314 116 106 91 255 4
-0.085180 0.003380 0.480703 0.126920 -0.171456 -0.976982 117 96 75 255 4
-0.084473 0.003379 0.480527 0.144974 -0.153881 -0.977396 119 94 71 255 4
-0.083752 0.003377 0.480271 0.153522 -0.140784 -0.978065 121 96 72 255 4
-0.083035 0.003375 0.480030 0.162649 -0.124611 -0.978784 122 96 72 255 4
-0.082377 0.003376 0.480126 0.167277 -0.108333 -0.979940 123 98 73 255 4
-0.081712 0.003377 0.480190 0.170744 -0.090690 -0.981133 123 98 73 255 4
-0.081048 0.003377 0.480255 0.171944 -0.074305 -0.982300 123 98 73 255 4
-0.080386 0.003378 0.480335 0.169686 -0.059112 -0.983724 124 98 73 255 4
-0.079737 0.003379 0.480495 0.168781 -0.041850 -0.984765 124 97 72 255 4
-0.079098 0.003380 0.480719 0.164520 -0.026889 -0.986007 123 96 71 255 4
-0.078461 0.003382 0.480960 0.161475 -0.012347 -0.986800 122 96 71 255 4
-0.077837 0.003384 0.481280 0.151122 0.002792 -0.988511 121 95 69 255 4
-0.077209 0.003386 0.481585 0.146496 0.015824 -0.989085 118 92 67 255 4
-0.076580 0.003388 0.481889 0.138346 0.030338 -0.989919 117 92 66 255 4
-0.075945 0.003390 0.482162 0.127020 0.037148 -0.991204 117 91 65 255 4
-0.075305 0.003392 0.482402 0.118052 0.047378 -0.991877 116 90 65 255 4
-0.074656 0.003393 0.482594 0.107954 0.055975 -0.992579 116 89 65 255 4
-0.074002 0.003395 0.482755 0.096872 0.063524 -0.993268 114 89 64 255 4
-0.073347 0.003396 0.482915 0.085912 0.069796 -0.993855 114 88 64 255 4
-0.072683 0.003396 0.483011 0.076414 0.079131 -0.993931 114 88 64 255 4
-0.072018 0.003397 0.483107 0.067481 0.087697 -0.993859 113 88 64 255 4
-0.071350 0.003398 0.483187 0.056712 0.097419 -0.993626 112 87 63 255 4
-0.070675 0.003398 0.483220 0.045431 0.109614 -0.992935 112 87 63 255 4
-0.069998 0.003398 0.483236 0.035782 0.122547 -0.991818 112 86 61 255 4
-0.069321 0.003398 0.483252 0.024542 0.135300 -0.990501 112 86 61 255 4
-0.068641 0.003398 0.483252 0.012410 0.150006 -0.988607 112 86 61 255 4
-0.067950 0.003398 0.483171 0.006042 0.162999 -0.986608 113 86 61 255 4
-0.067260 0.003397 0.483091 -0.004701 0.171269 -0.985213 113 85 60 255 4
-0.066567 0.003396 0.482995 -0.011754 0.186363 -0.982411 113 86 61 255 4
-0.065864 0.003395 0.482819 -0.020615 0.207550 -0.978007 113 86 61 255 4
-0.065163 0.003394 0.482659 -0.027804 0.222385 -0.974562 112 86 61 255 4
-0.064463 0.003393 0.482498 -0.034208 0.234399 -0.971538 111 85 60 255 4
-0.063763 0.003392 0.482338 -0.038418 0.250440 -0.967369 111 85 60 255 4
-0.063062 0.003390 0.482162 -0.040182 0.257789 -0.965365 110 85 60 255 4
-0.062363 0.003389 0.482001 -0.041690 0.266888 -0.962826 110 84 59 255 4
-0.061681 0.003389 0.481969 -0.042183 0.277318 -0.959852 109 84 59 255 4
-0.061003 0.003389 0.481969 -0.041100 0.280421 -0.958997 110 84 59 255 4
-0.060327 0.003389 0.481985 -0.039710 0.285104 -0.957674 110 84 59 255 4
-0.059651 0.003389 0.482001 -0.035202 0.282815 -0.958528 110 84 59 255 4
-0.058981 0.003390 0.482066 -0.029686 0.286413 -0.957646 110 83 59 255 4
-0.058313 0.003390 0.482146 -0.023137 0.288903 -0.957079 110 84 60 255 4
-0.057645 0.003391 0.482226 -0.015273 0.292150 -0.956251 109 83 59 255 4
-0.056980 0.003392 0.482338 -0.006862 0.292321 -0.956296 109 83 59 255 4
-0.056314 0.003392 0.482450 0.001406 0.289595 -0.957148 108 83 59 255 4
-0.055653 0.003393 0.482594 0.008917 0.284131 -0.958744 108 85 60 255 4
-0.054987 0.003394 0.482707 0.013293 0.282857 -0.959070 108 85 61 255 4
-0.054311 0.003394 0.482739 0.020561 0.273698 -0.961596 109 85 61 255 4
-0.053636 0.003395 0.482771 0.024105 0.262949 -0.964509 110 85 61 255 4
-0.052959 0.003395 0.482787 0.029437 0.250269 -0.967729 110 85 60 255 4
-0.052277 0.003395 0.482755 0.031521 0.234057 -0.971712 111 86 60 255 4
-0.051604 0.003395 0.482819 0.034909 0.217309 -0.975478 112 86 60 255 4
-0.050936 0.003396 0.482915 0.036307 0.197555 -0.979619 112 86 60 255 4
-0.050266 0.003396 0.483011 0.037614 0.176300 -0.983617 114 86 60 255 4
-0.049586 0.003396 0.482995 0.039063 0.150829 -0.987788 114 87 61 255 4
-0.048906 0.003396 0.482995 0.041168 0.122233 -0.991647 113 86 60 255 4
-0.048227 0.003396 0.482995 0.049246 0.094672 -0.994290 113 85 59 255 4
-0.047548 0.003396 0.482995 0.055135 0.059171 -0.996724 114 86 60 255 4
-0.046869 0.003396 0.482995 0.067577 0.024997 -0.997401 115 87 61 255 4
-0.046188 0.003396 0.482979 0.081839 -0.008249 -0.996611 117 88 62 255 4
-0.045505 0.003396 0.482947 0.094103 -0.044746 -0.994556 118 89 62 255 4
-0.044820 0.003395 0.482883 0.109151 -0.082171 -0.990623 119 88 63 255 4
-0.044134 0.003395 0.482803 0.129642 -0.123426 -0.983849 121 90 64 255 4
-0.043452 0.003395 0.482771 0.145962 -0.158390 -0.976528 121 91 65 255 4
-0.042766 0.003394 0.482691 0.164433 -0.199131 -0.966079 121 93 67 255 4
-0.042076 0.003393 0.482562 0.181815 -0.225678 -0.957086 122 95 69 255 4
-0.041388 0.003392 0.482450 0.210424 -0.261339 -0.942032 124 98 71 255 4
-0.040708 0.003392 0.482434 0.230026 -0.288498 -0.929439 125 100 73 255 4
-0.040029 0.003392 0.482434 0.249643 -0.314359 -0.915892 126 101 74 255 2
-0.039350 0.003392 0.482418 0.248879 -0.323733 -0.912829 129 104 76 255 2
-0.038675 0.003393 0.482466 0.242509 -0.329997 -0.912300 131 105 77 255 2
-0.038008 0.003394 0.482611 0.243350 -0.339522 -0.908573 132 106 79 255 2
-0.037350 0.003395 0.482883 0.237006 -0.350970 -0.905896 132 105 79 255 2
-0.036704 0.003399 0.483316 0.237383 -0.360017 -0.902240 131 103 77 255 2
-0.036058 0.003402 0.483764 0.218515 -0.371375 -0.902403 127 100 74 255 2
-0.035416 0.003405 0.484293 0.200187 -0.385185 -0.900865 122 95 70 255 2
-0.034773 0.003409 0.484822 0.180379 -0.394460 -0.901036 115 91 65 255 2
-0.034146 0.003415 0.485608 0.153186 -0.413556 -0.897499 110 87 62 255 2
-0.033546 0.003423 0.486810 0.124452 -0.428367 -0.894993 98 80 56 255 2
-0.007403 0.003365 0.478524 -0.047163 -0.583626 -0.810652 104 87 72 255 2
-0.006723 0.003362 0.478075 -0.039032 -0.581693 -0.812471 97 76 59 255 2
-0.006054 0.003363 0.478331 -0.045445 -0.582273 -0.811723 97 71 54 255 2
-0.005340 0.003338 0.474645 -0.044166 -0.575123 -0.816874 115 85 65 255 2
-0.004671 0.003336 0.474485 -0.043895 -0.574099 -0.817608 117 93 72 255 2
-0.004006 0.003338 0.474725 -0.042712 -0.576927 -0.815678 123 93 73 255 2
-0.003338 0.003338 0.474773 -0.036206 -0.576802 -0.816081 121 91 72 255 2
-0.002672 0.003340 0.474966 -0.031714 -0.576016 -0.816823 116 92 71 255 2
-0.160584 0.004440 0.526204 -0.669654 -0.676510 -0.306428 113 101 80 255 3
-0.150886 0.004191 0.496714 -0.324310 -0.566614 -0.757477 125 105 82 255 3
-0.150110 0.004189 0.496458 -0.320058 -0.564478 -0.760873 129 103 79 255 3
-0.149417 0.004189 0.496474 -0.320032 -0.563577 -0.761551 130 102 78 255 3
-0.148723 0.004189 0.496490 -0.311518 -0.559858 -0.767799 132 102 78 255 3
-0.148030 0.004190 0.496506 -0.298493 -0.553178 -0.777751 132 102 78 255 3
-0.147351 0.004190 0.496570 -0.274797 -0.546624 -0.791005 137 105 79 255 3
-0.146676 0.004191 0.496650 -0.242978 -0.537776 -0.807316 134 103 78 255 3
-0.146001 0.004191 0.496730 -0.240859 -0.534099 -0.810386 134 103 77 255 3
-0.145340 0.004193 0.496859 -0.238770 -0.528334 -0.814771 134 103 77 255 3
-0.144679 0.004194 0.496987 -0.227984 -0.522151 -0.821816 133 103 78 255 3
-0.143975 0.004193 0.496971 -0.224805 -0.514726 -0.827357 134 105 79 255 3
-0.143299 0.004194 0.497051 -0.214025 -0.511027 -0.832493 133 105 79 255 3
-0.142637 0.004195 0.497179 -0.207580 -0.505757 -0.837329 134 106 81 255 3
-0.141974 0.004196 0.497307 -0.204904 -0.497299 -0.843035 134 107 81 255 3
-0.141316 0.004198 0.497452 -0.203768 -0.495285 -0.844495 135 107 80 255 3
-0.140662 0.004199 0.497612 -0.201387 -0.489746 -0.848288 136 108 81 255 3
-0.140007 0.004200 0.497772 -0.197116 -0.482229 -0.853581 136 108 81 255 3
-0.139352 0.004202 0.497932 -0.191362 -0.474885 -0.858991 135 108 81 255 3
-0.138710 0.004203 0.498141 -0.191505 -0.473229 -0.859872 133 107 80 255 3
-0.138080 0.004205 0.498397 -0.187467 -0.468202 -0.863506 130 106 80 255 3
-0.137459 0.004208 0.498686 -0.178494 -0.458068 -0.870812 126 102 77 255 3
-0.136845 0.004211 0.499006 -0.167173 -0.447593 -0.878473 126 102 77 255 3
-0.136270 0.004215 0.499471 -0.148172 -0.431935 -0.889650 122 91 67 255 3
-0.135707 0.004219 0.499984 -0.140336 -0.426998 -0.893296 104 80 56 255 3
-0.100856 0.004089 0.484566 -0.210216 -0.468295 -0.858201 100 99 88 255 4
-0.099890 0.004077 0.483187 -0.151638 -0.456228 -0.876847 101 101 89 255 4
-0.099102 0.004073 0.482659 -0.135129 -0.447640 -0.883945 103 103 91 255 4
-0.098315 0.004068 0.482130 -0.116345 -0.440417 -0.890223 105 105 93 255 4
-0.097566 0.004065 0.481777 -0.111128 -0.434024 -0.894021 105 105 93 255 4
-0.096821 0.004062 0.481441 -0.103611 -0.426506 -0.898531 106 106 94 255 4
-0.095900 0.004052 0.480222 -0.068069 -0.424530 -0.902851 107 107 96 255 4
-0.095190 0.004051 0.480046 -0.056099 -0.415463 -0.907878 109 110 98 255 4
-0.094546 0.004052 0.480206 -0.047376 -0.403024 -0.913962 112 113 101 255 4
-0.093893 0.004053 0.480319 -0.041680 -0.392245 -0.918916 110 110 99 255 4
-0.093239 0.004054 0.480431 -0.034902 -0.369976 -0.928385 111 111 100 255 4
-0.092579 0.004055 0.480511 -0.033519 -0.362254 -0.931477 111 111 100 255 4
-0.091910 0.004055 0.480543 -0.029734 -0.341820 -0.939295 110 110 99 255 4
-0.091240 0.004055 0.480575 -0.021259 -0.329653 -0.943863 109 109 98 255 4
-0.090573 0.004056 0.480623 -0.006002 -0.312115 -0.950026 108 108 96 255 4
-0.089903 0.004056 0.480655 0.005502 -0.295373 -0.955366 106 106 95 255 4
-0.089233 0.004056 0.480687 0.024282 -0.275587 -0.960969 106 106 95 255 4
-0.088548 0.004056 0.480639 0.037633 -0.260431 -0.964759 103 104 93 255 4
-0.087840 0.004054 0.480463 0.071120 -0.245217 -0.966856 101 102 92 255 4
-0.087135 0.004053 0.480303 0.094993 -0.228655 -0.968862 101 102 91 255 4
-0.086437 0.004052 0.480174 0.111697 -0.215770 -0.970035 108 109 99 255 4
-0.085739 0.004051 0.480046 0.133967 -0.197545 -0.971097 115 113 100 255 4
-0.085103 0.004053 0.480271 0.145357 -0.177055 -0.973408 116 103 84 255 4
-0.084487 0.004055 0.480607 0.152787 -0.157893 -0.975564 116 94 71 255 4
-0.083761 0.004053 0.480319 0.164895 -0.141212 -0.976150 118 93 68 255 4
-0.083049 0.004051 0.480110 0.173904 -0.125596 -0.976721 120 94 70 255 4
-0.082366 0.004051 0.480062 0.180453 -0.109515 -0.977468 121 96 71 255 4
-0.081702 0.004051 0.480126 0.184886 -0.092413 -0.978405 122 96 71 255 4
-0.081037 0.004052 0.480190 0.187228 -0.074977 -0.979451 122 96 71 255 4
-0.080373 0.004052 0.480255 0.185092 -0.059476 -0.980920 122 96 71 255 4
-0.079732 0.004054 0.480463 0.181139 -0.040240 -0.982634 120 95 70 255 4
-0.079111 0.004057 0.480799 0.175418 -0.022852 -0.984229 120 95 69 255 4
-0.078490 0.004060 0.481136 0.172371 -0.001752 -0.985031 118 93 68 255 4
-0.077871 0.004063 0.481489 0.167011 0.009593 -0.985908 118 92 67 255 4
-0.077245 0.004066 0.481809 0.156036 0.023063 -0.987482 115 90 65 255 4
-0.076610 0.004068 0.482082 0.146813 0.035094 -0.988542 114 89 63 255 4
-0.075973 0.004070 0.482338 0.135494 0.047394 -0.989644 115 88 63 255 4
-0.075335 0.004072 0.482594 0.126174 0.059080 -0.990247 113 87 62 255 4
-0.074683 0.004074 0.482771 0.116422 0.069922 -0.990735 113 87 62 255 4
-0.074031 0.004075 0.482947 0.103674 0.083147 -0.991130 112 87 62 255 4
-0.073386 0.004077 0.483171 0.093660 0.091869 -0.991357 112 86 62 255 4
-0.072733 0.004078 0.483348 0.083235 0.097461 -0.991753 111 85 61 255 4
-0.072073 0.004080 0.483476 0.074176 0.105475 -0.991652 110 85 60 255 4
-0.071409 0.004081 0.483588 0.066310 0.114096 -0.991254 109 84 60 255 4
-0.070741 0.004081 0.483668 0.056067 0.124522 -0.990632 109 83 60 255 4
-0.070065 0.004081 0.483700 0.046541 0.134837 -0.989774 110 84 59 255 4
-0.069392 0.004082 0.483748 0.036937 0.150531 -0.987915 110 83 58 255 4
-0.068707 0.004082 0.483716 0.027718 0.163421 -0.986167 110 83 59 255 4
-0.068016 0.004081 0.483636 0.018304 0.179254 -0.983632 111 83 58 255 4
-0.067326 0.004080 0.483572 0.008146 0.197208 -0.980328 111 83 58 255 4
-0.066633 0.004080 0.483476 -0.002463 0.209254 -0.977858 110 84 58 255 4
-0.065929 0.004078 0.483300 -0.011435 0.226937 -0.973842 111 84 59 255 4
-0.065228 0.004077 0.483139 -0.019539 0.243944 -0.969592 111 84 60 255 4
-0.064529 0.004076 0.482995 -0.025368 0.259927 -0.965295 109 82 58 255 4
-0.063827 0.004074 0.482819 -0.030738 0.268673 -0.962741 108 82 58 255 4
-0.063122 0.004072 0.482627 -0.034640 0.279087 -0.959641 108 82 57 255 4
-0.062425 0.004071 0.482482 -0.036628 0.287453 -0.957094 107 82 57 255 4
-0.061746 0.004071 0.482482 -0.039204 0.291390 -0.955801 107 82 57 255 4
-0.061072 0.004071 0.482514 -0.038945 0.297813 -0.953829 107 82 57 255 4
-0.060397 0.004072 0.482546 -0.037457 0.299675 -0.953306 107 82 57 255 4
-0.059725 0.004072 0.482594 -0.032948 0.303140 -0.952376 106 81 57 255 4
-0.059056 0.004073 0.482675 -0.028027 0.305773 -0.951692 107 81 58 255 4
-0.058383 0.004073 0.482723 -0.021985 0.310330 -0.950375 107 81 58 255 4
-0.057714 0.004074 0.482803 -0.015626 0.309190 -0.950872 106 80 57 255 4
-0.057048 0.004075 0.482915 -0.010223 0.310701 -0.950453 106 81 57 255 4
-0.056387 0.004076 0.483075 -0.003834 0.308648 -0.951169 106 81 58 255 4
-0.055723 0.004077 0.483204 0.002950 0.303601 -0.952795 106 82 58 255 4
-0.055045 0.004077 0.483220 0.007800 0.301079 -0.953567 107 83 59 255 4
-0.054367 0.004078 0.483236 0.012292 0.290837 -0.956694 107 82 58 255 4
-0.053686 0.004077 0.483220 0.016764 0.280396 -0.959738 108 83 58 255 4
-0.053003 0.004077 0.483187 0.019130 0.266070 -0.963764 109 83 58 255 4
-0.052320 0.004077 0.483155 0.020278 0.251565 -0.967628 109 83 58 255 4
-0.051651 0.004078 0.483252 0.022558 0.229747 -0.972989 110 83 58 255 4
-0.050981 0.004078 0.483348 0.022033 0.208496 -0.977775 111 83 58 255 4
-0.050308 0.004079 0.483412 0.022067 0.185752 -0.982349 111 83 58 255 4
-0.049627 0.004079 0.483396 0.024230 0.155611 -0.987521 111 83 57 255 4
-0.048947 0.004079 0.483396 0.029801 0.129594 -0.991119 112 84 57 255 4
-0.048265 0.004079 0.483380 0.030075 0.098893 -0.994643 112 84 58 255 4
-0.047584 0.004079 0.483364 0.038677 0.062684 -0.997284 112 84 58 255 4
-0.046906 0.004079 0.483380 0.049278 0.031201 -0.998298 113 85 59 255 4
-0.046226 0.004079 0.483380 0.062227 -0.001435 -0.998061 115 86 61 255 4
-0.045545 0.004079 0.483364 0.077627 -0.042989 -0.996055 116 86 60 255 4
-0.044858 0.004078 0.483284 0.092276 -0.082771 -0.992287 117 87 61 255 4
-0.044171 0.004077 0.483204 0.108797 -0.124027 -0.986296 119 88 63 255 4
-0.043485 0.004077 0.483139 0.126139 -0.165393 -0.978128 120 90 64 255 4
-0.042787 0.004075 0.482931 0.148591 -0.207636 -0.966855 121 92 66 255 4
-0.042090 0.004073 0.482723 0.168245 -0.239079 -0.956313 121 93 67 255 4
-0.041400 0.004072 0.482594 0.203798 -0.280393 -0.938001 122 96 70 255 4
-0.040711 0.004071 0.482466 0.219840 -0.301259 -0.927854 123 98 72 255 4
-0.040029 0.004071 0.482434 0.233540 -0.326573 -0.915865 125 100 73 255 2
-0.039348 0.004071 0.482402 0.243318 -0.341467 -0.907853 127 103 75 255 2
-0.038666 0.004070 0.482354 0.236386 -0.347313 -0.907466 129 104 76 255 2
-0.037998 0.004071 0.482482 0.230823 -0.356559 -0.905310 130 104 77 255 2
-0.037335 0.004073 0.482691 0.218433 -0.363840 -0.905487 130 104 77 255 2
-0.036686 0.004076 0.483075 0.222090 -0.371418 -0.901513 129 102 76 255 2
-0.036039 0.004080 0.483508 0.211081 -0.384241 -0.898779 127 100 74 255 2
-0.035392 0.004084 0.483957 0.191124 -0.393681 -0.899159 122 96 71 255 2
-0.034750 0.004088 0.484502 0.169687 -0.405310 -0.898293 115 91 66 255 2
-0.034116 0.004094 0.485175 0.144860 -0.421604 -0.895135 109 88 62 255 2
-0.033501 0.004102 0.486153 0.125581 -0.429132 -0.894469 99 80 55 255 2
-0.032949 0.004119 0.488108 0.105662 -0.441696 -0.890921 81 75 55 255 2
-0.008731 0.004030 0.477546 -0.046480 -0.584120 -0.810335 101 90 73 255 2
-0.008050 0.004025 0.477017 -0.039810 -0.582827 -0.811621 113 92 75 255 2
-0.007378 0.004024 0.476937 -0.050389 -0.580362 -0.812798 123 102 84 255 2
-0.006065 0.004044 0.479213 -0.051489 -0.588126 -0.807129 92 68 53 255 2
-0.005344 0.004008 0.474950 -0.048769 -0.580925 -0.812495 102 74 55 255 2
-0.004671 0.004004 0.474533 -0.045166 -0.579307 -0.813857 105 80 60 255 2
-0.004005 0.004005 0.474581 -0.048426 -0.579968 -0.813199 107 78 58 255 2
-0.003338 0.004006 0.474709 -0.045177 -0.579201 -0.813932 103 74 56 255 2
-0.002671 0.004007 0.474885 -0.037969 -0.580823 -0.813144 103 75 55 255 2
-0.162611 0.005174 0.525579 -0.669654 -0.676510 -0.306428 102 97 77 255 3
-0.152770 0.004883 0.496025 -0.317299 -0.566430 -0.760578 102 97 77 255 3
-0.151979 0.004880 0.495721 -0.315114 -0.568039 -0.760286 132 103 80 255 3
-0.151286 0.004880 0.495737 -0.314642 -0.568714 -0.759977 134 105 81 255 3
-0.150580 0.004880 0.495705 -0.302478 -0.566547 -0.766506 134 103 80 255 3
-0.149892 0.004880 0.495737 -0.291956 -0.566214 -0.770820 134 103 80 255 3
-0.149234 0.004881 0.495865 -0.293308 -0.564917 -0.771258 133 102 79 255 3
-0.148579 0.004883 0.496009 -0.250746 -0.557103 -0.791683 134 102 79 255 3
-0.147920 0.004884 0.496137 -0.249296 -0.555296 -0.793409 134 102 78 255 3
-0.147256 0.004885 0.496250 -0.241467 -0.550462 -0.799178 133 101 76 255 3
-0.146600 0.004887 0.496394 -0.241297 -0.547524 -0.801245 133 101 76 255 3
-0.145954 0.004888 0.496570 -0.239922 -0.541351 -0.805839 130 99 75 255 3
-0.145289 0.004890 0.496682 -0.224675 -0.536161 -0.813666 130 100 76 255 3
-0.144613 0.004890 0.496763 -0.225907 -0.531090 -0.816645 130 100 76 255 3
-0.143933 0.004891 0.496827 -0.225687 -0.529778 -0.817558 129 101 76 255 3
-0.143253 0.004892 0.496891 -0.216533 -0.521180 -0.825521 131 103 78 255 3
-0.142586 0.004893 0.497003 -0.216168 -0.515963 -0.828887 131 104 79 255 3
-0.141920 0.004894 0.497115 -0.210370 -0.514314 -0.831400 131 104 80 255 3
-0.141257 0.004895 0.497243 -0.209889 -0.508872 -0.834863 131 104 80 255 3
-0.140589 0.004896 0.497356 -0.207874 -0.504018 -0.838305 135 107 81 255 3
-0.139926 0.004897 0.497484 -0.205622 -0.497615 -0.842673 134 106 80 255 3
-0.139262 0.004899 0.497612 -0.204182 -0.493475 -0.845454 136 109 82 255 3
-0.138607 0.004900 0.497772 -0.201619 -0.489202 -0.848546 137 111 84 255 3
-0.137969 0.004902 0.497997 -0.197052 -0.482486 -0.853450 135 110 84 255 3
-0.137331 0.004905 0.498221 -0.194094 -0.475937 -0.857795 131 108 82 255 3
-0.136705 0.004907 0.498493 -0.188503 -0.468315 -0.863219 127 103 78 255 3
-0.136126 0.004912 0.498942 -0.173022 -0.457204 -0.872369 121 94 71 255 3
-0.135555 0.004916 0.499423 -0.164947 -0.451779 -0.876748 114 87 62 255 3
-0.135121 0.004926 0.500417 -0.139628 -0.429029 -0.892434 96 85 65 255 3
-0.100726 0.004764 0.483941 -0.162336 -0.469263 -0.868009 100 99 88 255 4
-0.100076 0.004766 0.484085 -0.148657 -0.459900 -0.875439 102 101 90 255 4
-0.099053 0.004749 0.482418 -0.103501 -0.450223 -0.886897 104 103 92 255 4
-0.098270 0.004744 0.481905 -0.093594 -0.447621 -0.889312 106 106 94 255 4
-0.097485 0.004739 0.481376 -0.085190 -0.441143 -0.893384 107 106 95 255 4
-0.096705 0.004734 0.480864 -0.074108 -0.436203 -0.896791 106 106 95 255 4
-0.095923 0.004729 0.480335 -0.056852 -0.430541 -0.900779 107 107 95 255 4
-0.095136 0.004723 0.479774 -0.030689 -0.425774 -0.904309 108 108 96 255 4
-0.094483 0.004724 0.479886 -0.024151 -0.419213 -0.907566 110 111 99 255 4
-0.093830 0.004725 0.479998 -0.018637 -0.396792 -0.917719 110 111 99 255 4
-0.093177 0.004726 0.480110 -0.016967 -0.387130 -0.921869 110 111 100 255 4
-0.092524 0.004727 0.480222 -0.011641 -0.370740 -0.928664 111 112 101 255 4
-0.091857 0.004728 0.480271 -0.008933 -0.355439 -0.934657 110 110 99 255 4
-0.091188 0.004728 0.480303 0.000858 -0.343511 -0.939148 109 110 98 255 4
-0.090525 0.004729 0.480367 0.014336 -0.322264 -0.946541 108 108 97 255 4
-0.089864 0.004730 0.480447 0.027140 -0.309490 -0.950515 106 107 96 255 4
-0.089203 0.004730 0.480527 0.038313 -0.290816 -0.956011 106 106 95 255 4
-0.088560 0.004732 0.480703 0.057622 -0.266858 -0.962012 106 106 95 255 4
-0.087904 0.004733 0.480815 0.080822 -0.246566 -0.965750 103 103 92 255 4
-0.087196 0.004732 0.480639 0.102402 -0.236767 -0.966155 100 100 90 255 4
-0.086497 0.004730 0.480511 0.122198 -0.217655 -0.968346 101 101 91 255 4
-0.085776 0.004728 0.480255 0.144366 -0.205314 -0.967990 107 107 97 255 4
-0.085106 0.004728 0.480287 0.158074 -0.188175 -0.969331 117 112 98 255 4
-0.084501 0.004732 0.480687 0.167159 -0.163249 -0.972321 113 98 78 255 4
-0.083786 0.004730 0.480463 0.175275 -0.150464 -0.972954 115 92 68 255 4
-0.083082 0.004728 0.480303 0.182432 -0.134755 -0.973940 118 92 67 255 4
-0.082363 0.004726 0.480046 0.193488 -0.117921 -0.973990 119 94 69 255 4
-0.081699 0.004726 0.480110 0.195728 -0.101926 -0.975347 120 94 69 255 4
-0.081034 0.004727 0.480174 0.196315 -0.082562 -0.977059 119 93 68 255 4
-0.080394 0.004729 0.480383 0.193930 -0.059226 -0.979226 117 92 68 255 4
-0.079761 0.004732 0.480639 0.192705 -0.040608 -0.980416 117 92 67 255 4
-0.079143 0.004735 0.480992 0.188267 -0.020800 -0.981898 116 91 66 255 4
-0.078524 0.004739 0.481344 0.184817 -0.005791 -0.982756 115 90 65 255 4
-0.077904 0.004742 0.481697 0.177870 0.010033 -0.984003 114 89 64 255 4
-0.077278 0.004745 0.482018 0.166977 0.024563 -0.985655 113 88 63 255 4
-0.076646 0.004748 0.482306 0.158680 0.042291 -0.986424 112 87 62 255 4
-0.076021 0.004751 0.482643 0.148416 0.058031 -0.987221 111 85 61 255 4
-0.075395 0.004755 0.482979 0.136802 0.068623 -0.988219 111 85 61 255 4
-0.074755 0.004757 0.483236 0.125784 0.079209 -0.988890 110 84 59 255 4
-0.074110 0.004759 0.483460 0.113884 0.090133 -0.989397 110 84 60 255 4
-0.073464 0.004762 0.483684 0.105122 0.098766 -0.989543 109 84 60 255 4
-0.072810 0.004763 0.483861 0.096002 0.114261 -0.988801 108 83 59 255 4
-0.072149 0.004765 0.483989 0.085967 0.124861 -0.988443 107 83 58 255 4
-0.071485 0.004766 0.484101 0.075060 0.135319 -0.987955 106 82 58 255 4
-0.070814 0.004766 0.484165 0.065674 0.147211 -0.986922 107 82 58 255 4
-0.070140 0.004767 0.484213 0.056896 0.155055 -0.986266 107 81 57 255 4
-0.069459 0.004767 0.484213 0.046073 0.168787 -0.984575 107 81 56 255 4
-0.068775 0.004767 0.484197 0.037065 0.182431 -0.982520 108 81 56 255 4
-0.068083 0.004766 0.484117 0.025628 0.196512 -0.980166 107 80 56 255 4
-0.067393 0.004765 0.484053 0.016553 0.208435 -0.977896 108 81 56 255 4
-0.066699 0.004764 0.483957 0.007081 0.225890 -0.974127 108 81 56 255 4
-0.065997 0.004763 0.483797 -0.004054 0.241046 -0.970505 107 81 57 255 4
-0.065297 0.004761 0.483652 -0.009390 0.256810 -0.966416 107 81 57 255 4
-0.064600 0.004760 0.483524 -0.016557 0.273346 -0.961773 106 79 56 255 4
-0.063894 0.004758 0.483332 -0.023333 0.285426 -0.958117 106 80 56 255 4
-0.063198 0.004757 0.483204 -0.028467 0.296432 -0.954630 105 79 55 255 4
-0.062506 0.004756 0.483107 -0.031476 0.302002 -0.952788 105 79 55 255 4
-0.061828 0.004756 0.483123 -0.035352 0.310589 -0.949887 104 80 55 255 4
-0.061153 0.004756 0.483155 -0.034990 0.314378 -0.948653 103 79 54 255 4
-0.060474 0.004756 0.483155 -0.036046 0.317594 -0.947542 104 79 55 255 4
-0.059802 0.004757 0.483220 -0.034371 0.322648 -0.945895 104 80 55 255 4
-0.059126 0.004757 0.483252 -0.029011 0.329118 -0.943843 104 79 55 255 4
-0.058451 0.004758 0.483284 -0.023522 0.329885 -0.943728 103 79 56 255 4
-0.057784 0.004759 0.483396 -0.018275 0.329234 -0.944071 103 78 55 255 4
-0.057124 0.004760 0.483556 -0.013116 0.328480 -0.944420 104 79 55 255 4
-0.056462 0.004762 0.483716 -0.008556 0.326629 -0.945114 104 79 55 255 4
-0.055789 0.004763 0.483780 -0.004229 0.325175 -0.945645 104 80 56 255 4
-0.055114 0.004763 0.483829 0.001310 0.318383 -0.947961 105 80 56 255 4
-0.054439 0.004763 0.483877 0.003485 0.309883 -0.950768 105 81 56 255 4
-0.053759 0.004763 0.483877 0.006772 0.295705 -0.955255 107 80 56 255 4
-0.053077 0.004763 0.483861 0.009039 0.280395 -0.959842 107 80 56 255 4
-0.052389 0.004763 0.483797 0.009152 0.263829 -0.964526 108 80 56 255 4
-0.051723 0.004764 0.483925 0.009802 0.244329 -0.969643 108 80 55 255 4
-0.051051 0.004765 0.484005 0.008982 0.219466 -0.975579 108 81 55 255 4
-0.050367 0.004764 0.483973 0.009103 0.194463 -0.980868 109 81 55 255 4
-0.049673 0.004763 0.483845 0.010091 0.162147 -0.986715 110 81 56 255 4
-0.048992 0.004763 0.483845 0.018840 0.135353 -0.990618 111 82 56 255 4
-0.048310 0.004763 0.483829 0.017976 0.107237 -0.994071 111 82 56 255 4
-0.047620 0.004762 0.483732 0.026249 0.065032 -0.997538 112 83 57 255 4
-0.046938 0.004762 0.483716 0.035216 0.036248 -0.998722 112 83 57 255 4
-0.046258 0.004762 0.483716 0.047918 0.003000 -0.998847 113 84 58 255 4
-0.045576 0.004762 0.483700 0.060353 -0.035054 -0.997561 115 85 60 255 4
-0.044893 0.004761 0.483668 0.071353 -0.080159 -0.994225 116 86 60 255 4
-0.044206 0.004761 0.483588 0.090802 -0.130467 -0.987286 118 87 61 255 4
-0.043513 0.004759 0.483444 0.109887 -0.167916 -0.979658 119 89 62 255 4
-0.042809 0.004757 0.483171 0.124944 -0.205966 -0.970550 118 90 64 255 4
-0.042111 0.004754 0.482963 0.149441 -0.250269 -0.956573 120 92 66 255 4
-0.041414 0.004752 0.482755 0.184068 -0.284898 -0.940719 120 94 68 255 4
-0.040724 0.004751 0.482627 0.203360 -0.315574 -0.926854 121 96 70 255 2
-0.040027 0.004749 0.482402 0.212756 -0.336387 -0.917376 123 99 72 255 2
-0.039346 0.004749 0.482370 0.229585 -0.360998 -0.903865 125 102 75 255 2
-0.038665 0.004748 0.482338 0.225874 -0.366911 -0.902418 128 103 76 255 2
-0.037990 0.004749 0.482386 0.225899 -0.377000 -0.898243 129 105 77 255 2
-0.037327 0.004751 0.482578 0.213260 -0.383457 -0.898599 128 104 77 255 2
-0.036670 0.004754 0.482867 0.201483 -0.387072 -0.899766 128 102 76 255 2
-0.036020 0.004757 0.483252 0.192879 -0.394880 -0.898258 126 100 74 255 2
-0.035373 0.004762 0.483700 0.180660 -0.409599 -0.894198 122 97 72 255 2
-0.034729 0.004767 0.484213 0.160489 -0.419415 -0.893496 116 92 67 255 2
-0.034093 0.004773 0.484854 0.138345 -0.426236 -0.893971 108 89 63 255 2
-0.033466 0.004781 0.485640 0.119748 -0.439855 -0.890049 98 79 54 255 2
-0.032877 0.004795 0.487034 0.102269 -0.448449 -0.887938 88 75 54 255 2
-0.010090 0.004709 0.478315 -0.044272 -0.588972 -0.806940 105 91 72 255 2
-0.009404 0.004702 0.477610 -0.048695 -0.587497 -0.807760 128 98 76 255 2
-0.008719 0.004695 0.476921 -0.051345 -0.586170 -0.808559 126 95 75 255 2
-0.008043 0.004692 0.476584 -0.046015 -0.585155 -0.809615 130 96 78 255 2
-0.007370 0.004690 0.476440 -0.051824 -0.585519 -0.809001 133 102 84 255 2
-0.006703 0.004692 0.476616 -0.054950 -0.584168 -0.809771 106 84 67 255 2
-0.006069 0.004721 0.479517 -0.056921 -0.590775 -0.804826 101 73 56 255 2
-0.005390 0.004716 0.479085 -0.058771 -0.591757 -0.803971 98 71 54 255 2
-0.004715 0.004715 0.478956 -0.052752 -0.589382 -0.806131 101 77 59 255 2
-0.004019 0.004689 0.476328 -0.044890 -0.586401 -0.808776 113 86 66 255 2
-0.003343 0.004680 0.475414 -0.046344 -0.584708 -0.809919 105 78 60 255 2
-0.002674 0.004679 0.475334 -0.047873 -0.584500 -0.809980 103 73 54 255 2
-0.163894 0.005906 0.524954 -0.669654 -0.676510 -0.306428 111 97 77 255 3
-0.153751 0.005566 0.494695 -0.305057 -0.564859 -0.766730 130 105 81 255 3
-0.153031 0.005565 0.494615 -0.295413 -0.564564 -0.770713 131 103 78 255 3
-0.152390 0.005567 0.494791 -0.296040 -0.564877 -0.770243 131 103 78 255 3
-0.151743 0.005569 0.494951 -0.295812 -0.566257 -0.769317 137 104 80 255 3
-0.151086 0.005570 0.495080 -0.272823 -0.564484 -0.779054 137 104 81 255 3
-0.150434 0.005572 0.495224 -0.240709 -0.561364 -0.791789 136 104 80 255 3
-0.149776 0.005573 0.495352 -0.240633 -0.561694 -0.791578 134 103 80 255 3
-0.149118 0.005574 0.495480 -0.242730 -0.561788 -0.790871 133 102 78 255 3
-0.148488 0.005577 0.495705 -0.230687 -0.558952 -0.796465 131 100 76 255 3
-0.147868 0.005580 0.495961 -0.234409 -0.558177 -0.795922 130 99 75 255 3
-0.147246 0.005583 0.496218 -0.235095 -0.557390 -0.796270 128 98 74 255 3
-0.146600 0.005585 0.496394 -0.236343 -0.553149 -0.798854 128 98 74 255 3
-0.145935 0.005586 0.496506 -0.236201 -0.545213 -0.804334 126 97 74 255 3
-0.145260 0.005587 0.496586 -0.223957 -0.542225 -0.809837 126 97 73 255 3
-0.144576 0.005587 0.496634 -0.221230 -0.540020 -0.812057 125 97 74 255 3
-0.143905 0.005589 0.496730 -0.213385 -0.534413 -0.817844 123 97 73 255 3
-0.143230 0.005589 0.496811 -0.214119 -0.530912 -0.819930 124 99 75 255 3
-0.142554 0.005590 0.496891 -0.215562 -0.525636 -0.822946 127 100 76 255 3
-0.141874 0.005591 0.496955 -0.210345 -0.522844 -0.826068 130 102 78 255 3
-0.141207 0.005592 0.497067 -0.210296 -0.519096 -0.828441 130 102 78 255 3
-0.140530 0.005593 0.497147 -0.210575 -0.514734 -0.831088 134 104 79 255 3
-0.139849 0.005594 0.497211 -0.209359 -0.510510 -0.833995 133 104 78 255 3
-0.139177 0.005595 0.497307 -0.208364 -0.505405 -0.837347 135 106 80 255 3
-0.138513 0.005596 0.497436 -0.205773 -0.498755 -0.841962 135 106 80 255 3
-0.137876 0.005599 0.497660 -0.205289 -0.495610 -0.843935 137 110 84 255 3
-0.137233 0.005601 0.497868 -0.201907 -0.491032 -0.847421 133 108 81 255 3
-0.136595 0.005604 0.498093 -0.198415 -0.484859 -0.851788 131 106 80 255 3
-0.135999 0.005608 0.498477 -0.192933 -0.475255 -0.858434 131 106 80 255 3
-0.135416 0.005613 0.498910 -0.181051 -0.466057 -0.866032 125 100 75 255 3
-0.134848 0.005619 0.499407 -0.159228 -0.447974 -0.879753 112 90 68 255 3
-0.100706 0.005444 0.483845 -0.122841 -0.470550 -0.873780 99 98 86 255 4
-0.099827 0.005433 0.482883 -0.089030 -0.464940 -0.880854 102 100 89 255 4
-0.099072 0.005429 0.482514 -0.080043 -0.457390 -0.885656 104 103 91 255 4
-0.098495 0.005434 0.483011 -0.080974 -0.447959 -0.890380 106 105 93 255 4
-0.097436 0.005413 0.481136 -0.060728 -0.452656 -0.889615 107 107 95 255 4
-0.096656 0.005407 0.480623 -0.044815 -0.444512 -0.894651 106 106 94 255 4
-0.095878 0.005402 0.480110 -0.031175 -0.438056 -0.898407 106 106 95 255 4
-0.095098 0.005396 0.479581 -0.002931 -0.442295 -0.896865 107 107 96 255 4
-0.094417 0.005395 0.479549 0.002734 -0.426978 -0.904258 108 108 97 255 4
-0.093765 0.005397 0.479662 0.004000 -0.413319 -0.910578 109 110 99 255 4
-0.093112 0.005398 0.479774 0.008518 -0.405527 -0.914043 110 111 100 255 4
-0.092459 0.005399 0.479886 0.007786 -0.387986 -0.921632 111 112 101 255 3
-0.091814 0.005401 0.480046 0.014674 -0.375316 -0.926781 110 111 99 255 3
-0.091161 0.005402 0.480158 0.017809 -0.357177 -0.933867 109 110 99 255 3
-0.090501 0.005403 0.480238 0.033257 -0.341250 -0.939384 108 109 98 255 3
-0.089837 0.005404 0.480303 0.043977 -0.323845 -0.945088 107 108 97 255 4
-0.089177 0.005405 0.480383 0.058048 -0.302834 -0.951274 106 107 96 255 4
-0.088533 0.005407 0.480559 0.073350 -0.284454 -0.955879 106 107 96 255 4
-0.087902 0.005409 0.480799 0.091982 -0.262940 -0.960418 104 104 93 255 4
-0.087260 0.005411 0.480992 0.109636 -0.240730 -0.964380 102 102 92 255 4
-0.086555 0.005410 0.480831 0.130751 -0.229248 -0.964546 101 101 91 255 3
-0.085839 0.005407 0.480607 0.152776 -0.212013 -0.965251 101 101 91 255 3
-0.085097 0.005403 0.480238 0.164804 -0.199835 -0.965870 109 109 98 255 4
-0.084405 0.005402 0.480142 0.180128 -0.184898 -0.966109 115 109 94 255 4
-0.083822 0.005408 0.480671 0.184679 -0.159302 -0.969802 112 93 72 255 4
-0.083116 0.005406 0.480495 0.196978 -0.140533 -0.970284 116 91 66 255 4
-0.082388 0.005402 0.480190 0.202381 -0.123420 -0.971499 115 91 66 255 3
-0.081704 0.005402 0.480142 0.208695 -0.105345 -0.972290 116 91 66 255 4
-0.081064 0.005404 0.480351 0.209216 -0.084393 -0.974221 115 90 65 255 4
-0.080426 0.005407 0.480575 0.206501 -0.062817 -0.976428 114 90 65 255 4
-0.079796 0.005410 0.480848 0.204601 -0.046514 -0.977740 114 90 65 255 4
-0.079172 0.005413 0.481168 0.200647 -0.022353 -0.979409 113 89 64 255 4
-0.078556 0.005418 0.481537 0.195900 -0.006014 -0.980605 112 88 62 255 4
-0.077951 0.005423 0.481985 0.188095 0.011342 -0.982085 111 87 62 255 4
-0.077345 0.005428 0.482434 0.175746 0.024839 -0.984122 110 86 61 255 4
-0.076717 0.005431 0.482755 0.170152 0.043119 -0.984474 109 85 60 255 4
-0.076092 0.005435 0.483091 0.161143 0.060353 -0.985084 109 84 59 255 4
-0.075470 0.005439 0.483460 0.149978 0.075371 -0.985812 107 83 58 255 4
-0.074834 0.005443 0.483748 0.137821 0.088273 -0.986516 107 82 58 255 4
-0.074189 0.005445 0.483973 0.125400 0.099611 -0.987093 107 81 57 255 4
-0.073542 0.005448 0.484197 0.114200 0.110789 -0.987261 106 81 57 255 4
-0.072890 0.005450 0.484390 0.104792 0.121278 -0.987072 104 80 56 255 4
-0.072225 0.005451 0.484502 0.094044 0.132456 -0.986717 105 80 56 255 4
-0.071558 0.005452 0.484598 0.083253 0.143696 -0.986114 104 79 56 255 4
-0.070889 0.005453 0.484678 0.073333 0.156910 -0.984887 104 79 55 255 4
-0.070209 0.005453 0.484694 0.064548 0.171563 -0.983056 105 79 55 255 4
-0.069528 0.005453 0.484694 0.056748 0.183575 -0.981366 105 78 54 255 4
-0.068844 0.005453 0.484678 0.045841 0.199897 -0.978744 106 79 55 255 4
-0.068153 0.005452 0.484614 0.037076 0.214918 -0.975928 105 79 54 255 4
-0.067463 0.005452 0.484550 0.027505 0.232464 -0.972216 104 78 54 255 4
-0.066768 0.005450 0.484454 0.019137 0.245354 -0.969245 104 79 55 255 4
-0.066069 0.005449 0.484325 0.007321 0.258400 -0.966010 103 79 54 255 4
-0.065371 0.005448 0.484197 -0.000715 0.271680 -0.962388 104 79 55 255 4
-0.064668 0.005446 0.484037 -0.009070 0.284575 -0.958611 104 78 55 255 4
-0.063975 0.005445 0.483941 -0.016760 0.296439 -0.954905 103 78 55 255 4
-0.063282 0.005444 0.483845 -0.023909 0.304227 -0.952299 103 78 55 255 4
-0.062589 0.005443 0.483748 -0.028997 0.313949 -0.948997 103 78 54 255 4
-0.061911 0.005443 0.483764 -0.030973 0.323077 -0.945866 102 77 53 255 4
-0.061230 0.005443 0.483764 -0.033092 0.328921 -0.943778 101 77 53 255 4
-0.060550 0.005443 0.483764 -0.032498 0.332056 -0.942700 101 78 53 255 4
-0.059874 0.005443 0.483797 -0.030805 0.338811 -0.940350 102 79 54 255 4
-0.059197 0.005443 0.483829 -0.028975 0.342539 -0.939057 102 79 54 255 4
-0.058526 0.005444 0.483909 -0.025854 0.347071 -0.937482 102 79 55 255 4
-0.057875 0.005447 0.484149 -0.022712 0.347483 -0.937411 101 77 54 255 4
-0.057222 0.005450 0.484390 -0.018211 0.345928 -0.938084 102 78 54 255 4
-0.056556 0.005451 0.484518 -0.013773 0.343278 -0.939133 102 77 54 255 4
-0.055882 0.005452 0.484582 -0.009539 0.341541 -0.939818 102 78 54 255 4
-0.055209 0.005453 0.484662 -0.007114 0.335138 -0.942142 103 78 54 255 4
-0.054530 0.005453 0.484678 -0.005407 0.324790 -0.945771 103 78 54 255 4
-0.053841 0.005452 0.484614 -0.004193 0.310711 -0.950495 104 78 54 255 4
-0.053145 0.005451 0.484486 -0.003449 0.295333 -0.955388 105 79 54 255 4
-0.052464 0.005451 0.484486 -0.003327 0.274628 -0.961545 105 79 54 255 4
-0.051791 0.005452 0.484566 -0.001132 0.254116 -0.967173 105 79 53 255 4
-0.051116 0.005452 0.484630 -0.002519 0.229547 -0.973294 105 79 53 255 4
-0.050425 0.005451 0.484534 -0.002571 0.202596 -0.979259 107 80 54 255 4
-0.049729 0.005450 0.484390 -0.001044 0.174306 -0.984691 108 80 54 255 4
-0.049038 0.005449 0.484293 0.001061 0.144653 -0.989482 109 80 54 255 4
-0.048350 0.005448 0.484229 0.005739 0.103513 -0.994612 109 80 54 255 4
-0.047661 0.005447 0.484149 0.013312 0.073927 -0.997175 110 81 55 255 4
-0.046973 0.005446 0.484069 0.021977 0.038851 -0.999003 111 81 56 255 4
-0.046289 0.005446 0.484037 0.034249 -0.000644 -0.999413 113 83 57 255 4
-0.045607 0.005446 0.484021 0.042364 -0.042733 -0.998188 115 84 58 255 4
-0.044923 0.005445 0.483989 0.056907 -0.089528 -0.994357 116 86 59 255 4
-0.044241 0.005445 0.483973 0.076905 -0.139344 -0.987253 117 87 60 255 4
-0.043543 0.005443 0.483780 0.093122 -0.181494 -0.978973 118 88 62 255 4
-0.042840 0.005440 0.483524 0.115737 -0.226313 -0.967154 117 89 63 255 4
-0.042136 0.005437 0.483252 0.141143 -0.260571 -0.955082 118 91 66 255 4
-0.041434 0.005434 0.482995 0.158778 -0.297198 -0.941521 118 93 67 255 4
-0.040739 0.005432 0.482803 0.182862 -0.327029 -0.927154 121 97 71 255 1
-0.040023 0.005427 0.482354 0.202446 -0.350906 -0.914265 123 99 73 255 2
-0.039343 0.005427 0.482338 0.223004 -0.373490 -0.900430 125 101 74 255 2
-0.038662 0.005426 0.482306 0.210160 -0.382566 -0.899709 128 103 76 255 2
-0.037988 0.005427 0.482354 0.210522 -0.393947 -0.894699 130 104 77 255 2
-0.037314 0.005428 0.482418 0.202601 -0.399521 -0.894056 130 104 77 255 2
-0.036655 0.005430 0.482675 0.192019 -0.399986 -0.896181 129 103 76 255 2
-0.036004 0.005435 0.483043 0.185670 -0.411961 -0.892084 127 101 74 255 2
-0.035355 0.005439 0.483460 0.171026 -0.426226 -0.888303 122 97 71 255 2
-0.034711 0.005445 0.483957 0.150838 -0.427781 -0.891208 119 94 68 255 2
-0.034072 0.005452 0.484550 0.138000 -0.442139 -0.886267 109 89 64 255 2
-0.033444 0.005460 0.485319 0.122803 -0.451947 -0.883552 100 81 57 255 2
-0.032832 0.005472 0.486377 0.100576 -0.457930 -0.883281 94 77 55 255 2
-0.010753 0.005377 0.477899 -0.046270 -0.590988 -0.805352 127 101 78 255 2
-0.010078 0.005375 0.477722 -0.043007 -0.592133 -0.804692 140 105 80 255 2
-0.009404 0.005374 0.477626 -0.050046 -0.590747 -0.805303 133 97 74 255 2
-0.008720 0.005366 0.476985 -0.054134 -0.592057 -0.804076 119 88 68 255 2
-0.008043 0.005362 0.476616 -0.051487 -0.589631 -0.806030 122 89 69 255 2
-0.007371 0.005361 0.476472 -0.057781 -0.588924 -0.806121 120 87 70 255 2
-0.006703 0.005363 0.476648 -0.059967 -0.588833 -0.806027 109 77 60 255 2
-0.006064 0.005390 0.479069 -0.059124 -0.594253 -0.802102 106 76 59 255 2
-0.005388 0.005388 0.478940 -0.065471 -0.594770 -0.801226 116 89 70 255 2
-0.004655 0.005320 0.472898 -0.055300 -0.583968 -0.809891 118 97 79 255 2
-0.003992 0.005322 0.473042 -0.052313 -0.584908 -0.809411 128 106 88 255 2
-0.003327 0.005323 0.473154 -0.057227 -0.586021 -0.808272 127 102 84 255 2
-0.002662 0.005325 0.473299 -0.055997 -0.586360 -0.808113 129 102 81 255 2
-0.002011 0.005363 0.476680 -0.058126 -0.587151 -0.807388 90 87 70 255 2
-0.155889 0.006263 0.494855 -0.297971 -0.566217 -0.768512 94 91 73 255 0
-0.155103 0.006260 0.494567 -0.298263 -0.566476 -0.768209 130 107 81 255 3
-0.154322 0.006256 0.494294 -0.287763 -0.565601 -0.772844 130 102 76 255 3
-0.153577 0.006254 0.494134 -0.286409 -0.565358 -0.773524 133 103 76 255 3
-0.152877 0.006254 0.494118 -0.276060 -0.565059 -0.777496 133 103 77 255 3
-0.152242 0.006257 0.494310 -0.253999 -0.562582 -0.786756 135 105 81 255 3
-0.151600 0.006259 0.494487 -0.228659 -0.560082 -0.796256 136 105 81 255 3
-0.150964 0.006261 0.494679 -0.229369 -0.559647 -0.796357 134 105 80 255 3
-0.150336 0.006264 0.494903 -0.233257 -0.560977 -0.794289 132 102 78 255 3
-0.149713 0.006267 0.495144 -0.234700 -0.561701 -0.793352 131 101 76 255 3
-0.149084 0.006270 0.495368 -0.221775 -0.560766 -0.797720 131 101 76 255 3
-0.148469 0.006273 0.495641 -0.223945 -0.561186 -0.796818 124 94 70 255 3
-0.147853 0.006277 0.495913 -0.227391 -0.560617 -0.796242 124 93 69 255 3
-0.147246 0.006281 0.496218 -0.228821 -0.558330 -0.797439 121 93 69 255 3
-0.146600 0.006283 0.496394 -0.226650 -0.556593 -0.799271 121 93 69 255 3
-0.145926 0.006284 0.496474 -0.218837 -0.552608 -0.804198 119 94 70 255 3
-0.145256 0.006285 0.496570 -0.222579 -0.548513 -0.805973 119 94 70 255 3
-0.144571 0.006286 0.496618 -0.221846 -0.547158 -0.807095 119 94 71 255 3
-0.143878 0.006286 0.496634 -0.208444 -0.545152 -0.812010 119 95 72 255 3
-0.143193 0.006287 0.496682 -0.211324 -0.540994 -0.814044 120 95 73 255 3
-0.142518 0.006288 0.496763 -0.212586 -0.536817 -0.816477 121 96 73 255 3
-0.141842 0.006289 0.496843 -0.215252 -0.531620 -0.819174 125 98 74 255 3
-0.141166 0.006290 0.496923 -0.210796 -0.529271 -0.821850 128 100 76 255 3
-0.140476 0.006290 0.496955 -0.210786 -0.527451 -0.823022 128 98 75 255 3
-0.139791 0.006291 0.497003 -0.211937 -0.522688 -0.825760 130 101 77 255 3
-0.139110 0.006291 0.497067 -0.211431 -0.516849 -0.829556 130 101 77 255 3
-0.138433 0.006292 0.497147 -0.210593 -0.514590 -0.831172 130 102 78 255 3
-0.137800 0.006295 0.497388 -0.209981 -0.508613 -0.834998 132 105 80 255 3
-0.137154 0.006298 0.497580 -0.208696 -0.504344 -0.837904 130 104 78 255 3
-0.136507 0.006300 0.497772 -0.207416 -0.499601 -0.841058 128 103 77 255 3
-0.135899 0.006305 0.498109 -0.204273 -0.494205 -0.845005 124 100 74 255 3
-0.135350 0.006312 0.498670 -0.199802 -0.484953 -0.851410 117 93 69 255 3
-0.134775 0.006318 0.499135 -0.186144 -0.475216 -0.859954 113 89 66 255 3
-0.134400 0.006333 0.500353 -0.153052 -0.443744 -0.882987 83 84 66 255 3
-0.100753 0.006127 0.484069 -0.097295 -0.475171 -0.874498 86 84 75 255 0
-0.099857 0.006114 0.483027 -0.064559 -0.469531 -0.880553 98 94 82 255 4
-0.098964 0.006101 0.481985 -0.052867 -0.469123 -0.881549 107 104 92 255 4
-0.098181 0.006094 0.481473 -0.042139 -0.466337 -0.883603 110 109 97 255 4
-0.097426 0.006089 0.481088 -0.034778 -0.462015 -0.886190 112 111 100 255 4
-0.096669 0.006084 0.480687 -0.021665 -0.458352 -0.888506 110 110 98 255 4
-0.095830 0.006074 0.479870 -0.005793 -0.454223 -0.890869 107 107 96 255 4
-0.095053 0.006067 0.479357 0.021303 -0.452764 -0.891376 106 106 95 255 4
-0.094341 0.006065 0.479165 0.022134 -0.443438 -0.896032 107 107 97 255 4
-0.093696 0.006067 0.479309 0.028348 -0.435931 -0.899534 109 110 99 255 4
-0.093043 0.006068 0.479421 0.027837 -0.423600 -0.905422 109 110 99 255 3
-0.092391 0.006069 0.479533 0.026456 -0.410875 -0.911308 110 111 99 255 3
-0.091750 0.006072 0.479710 0.035098 -0.399853 -0.915907 109 110 99 255 3
-0.091115 0.006074 0.479918 0.042036 -0.377672 -0.924985 109 109 98 255 3
-0.090473 0.006077 0.480094 0.049067 -0.363114 -0.930452 109 109 98 255 3
-0.089813 0.006078 0.480174 0.063399 -0.343647 -0.936957 108 108 97 255 3
-0.089153 0.006079 0.480255 0.074209 -0.324011 -0.943138 108 108 97 255 3
-0.088510 0.006081 0.480431 0.087034 -0.303393 -0.948882 107 107 96 255 3
