ply
format ascii 1.0
comment Created by labeled_geometry.py
element vertex 647
property float x
property float y
property float z
property float nx
property float ny
property float nz
property uchar red
property uchar green
property uchar blue
property uchar alpha
property uchar label
end_header
0.034171 -0.011390 0.404963 0.026113 -0.307472 -0.951199 130 108 82 255 1
0.034676 -0.011369 0.404208 -0.035259 -0.348632 -0.936596 129 107 79 255 1
0.035159 -0.011342 0.403229 -0.120875 -0.411141 -0.903522 134 104 77 255 1
0.035592 -0.011299 0.401721 -0.209879 -0.455887 -0.864938 135 104 78 255 1
0.036010 -0.011253 0.400083 -0.283797 -0.496425 -0.820379 135 108 81 255 4
0.036440 -0.011212 0.398639 -0.328796 -0.549204 -0.768289 134 106 80 255 4
0.036903 -0.011183 0.397580 -0.361303 -0.587609 -0.724000 132 101 77 255 4
0.037380 -0.011158 0.396713 -0.377876 -0.617311 -0.690027 132 101 76 255 4
0.037867 -0.011137 0.395975 -0.392762 -0.644964 -0.655560 130 99 75 255 4
0.038353 -0.011117 0.395236 -0.408337 -0.657700 -0.633002 129 99 76 255 4
0.038844 -0.011098 0.394578 -0.420901 -0.672749 -0.608482 129 101 78 255 4
0.039341 -0.011082 0.394001 -0.433675 -0.677368 -0.594221 127 100 76 255 4
0.039835 -0.011065 0.393407 -0.447370 -0.684052 -0.576136 126 99 75 255 4
0.040344 -0.011053 0.392974 -0.453799 -0.687880 -0.566470 127 100 75 255 4
0.040856 -0.011042 0.392588 -0.456665 -0.687729 -0.564346 130 101 76 255 4
0.041369 -0.011032 0.392219 -0.444135 -0.687940 -0.574006 131 102 77 255 4
0.041887 -0.011023 0.391898 -0.426649 -0.687184 -0.588004 132 103 77 255 4
0.042401 -0.011013 0.391561 -0.409176 -0.689372 -0.597780 130 103 77 255 4
0.042913 -0.011003 0.391208 -0.388232 -0.687980 -0.613156 129 103 78 255 4
0.043422 -0.010993 0.390839 -0.369556 -0.685120 -0.627725 130 104 79 255 4
0.043932 -0.010983 0.390486 -0.349730 -0.683966 -0.640218 130 106 80 255 4
0.044449 -0.010975 0.390197 -0.330902 -0.681930 -0.652285 130 106 80 255 4
0.044964 -0.010967 0.389908 -0.312451 -0.681392 -0.661876 131 106 80 255 4
0.045481 -0.010959 0.389635 -0.294944 -0.680234 -0.671037 132 106 80 255 4
0.045998 -0.010952 0.389378 -0.277125 -0.678065 -0.680756 133 108 82 255 4
0.046517 -0.010945 0.389138 -0.259740 -0.677190 -0.688439 134 110 83 255 4
0.047037 -0.010939 0.388913 -0.241917 -0.676146 -0.695918 135 111 85 255 4
0.047555 -0.010932 0.388672 -0.222581 -0.673449 -0.704929 137 113 86 255 4
0.048073 -0.010926 0.388448 -0.202710 -0.673028 -0.711296 137 114 87 255 4
0.048594 -0.010920 0.388239 -0.185588 -0.670834 -0.718010 137 115 88 255 4
0.049115 -0.010914 0.388046 -0.166623 -0.670196 -0.723239 138 117 89 255 4
0.049636 -0.010909 0.387854 -0.145973 -0.667461 -0.730197 138 116 90 255 4
0.050169 -0.010906 0.387757 -0.129112 -0.668863 -0.732088 138 116 90 255 4
0.050704 -0.010904 0.387677 -0.107883 -0.668640 -0.735719 138 116 90 255 4
0.051236 -0.010901 0.387581 -0.086160 -0.667732 -0.739399 138 116 89 255 4
0.051777 -0.010900 0.387549 -0.064852 -0.667439 -0.741836 139 115 89 255 4
0.052335 -0.010903 0.387645 -0.045229 -0.670797 -0.740261 139 115 88 255 4
0.052894 -0.010906 0.387741 -0.025550 -0.673179 -0.739038 140 115 88 255 4
0.053452 -0.010909 0.387838 -0.003627 -0.675166 -0.737657 139 115 87 255 4
0.054011 -0.010911 0.387934 0.016537 -0.674915 -0.737710 138 114 86 255 4
0.054568 -0.010914 0.388014 0.034532 -0.676025 -0.736069 138 115 87 255 4
0.055120 -0.010915 0.388062 0.051493 -0.675261 -0.735779 137 115 87 255 4
0.055673 -0.010916 0.388110 0.067815 -0.675605 -0.734139 137 114 86 255 4
0.056228 -0.010918 0.388175 0.084947 -0.675348 -0.732591 137 114 86 255 4
0.056781 -0.010919 0.388223 0.099025 -0.675367 -0.730803 138 114 86 255 4
0.057337 -0.010921 0.388287 0.110706 -0.674956 -0.729506 138 113 86 255 4
0.057907 -0.010926 0.388448 0.121798 -0.675853 -0.726903 138 114 87 255 4
0.058482 -0.010931 0.388640 0.131067 -0.678123 -0.723167 138 114 87 255 4
0.059065 -0.010938 0.388881 0.139368 -0.680347 -0.719517 138 113 87 255 4
0.059649 -0.010945 0.389122 0.145044 -0.682157 -0.716676 138 114 88 255 4
0.060216 -0.010948 0.389250 0.150321 -0.683112 -0.714676 138 114 88 255 4
0.060801 -0.010955 0.389491 0.152876 -0.684252 -0.713041 137 113 87 255 4
0.061394 -0.010963 0.389780 0.154831 -0.685395 -0.711520 138 114 88 255 4
0.061993 -0.010972 0.390101 0.153910 -0.687214 -0.709964 137 114 88 255 4
0.062583 -0.010979 0.390357 0.153497 -0.686690 -0.710560 137 113 87 255 4
0.063158 -0.010984 0.390518 0.151069 -0.686772 -0.711001 136 111 86 255 4
0.063733 -0.010989 0.390678 0.147209 -0.686845 -0.711739 135 111 85 255 4
0.064317 -0.010994 0.390887 0.142987 -0.686989 -0.712462 136 111 87 255 4
0.064923 -0.011004 0.391224 0.138426 -0.687403 -0.712962 136 111 86 255 4
0.065527 -0.011013 0.391545 0.133950 -0.687310 -0.713906 136 112 87 255 4
0.066115 -0.011019 0.391770 0.128772 -0.688910 -0.713317 138 115 89 255 4
0.066674 -0.011021 0.391818 0.122856 -0.688694 -0.714568 137 114 88 255 4
0.067242 -0.011023 0.391914 0.116545 -0.689075 -0.715257 138 115 88 255 4
0.067826 -0.011029 0.392107 0.111926 -0.690294 -0.714819 138 116 88 255 4
0.068409 -0.011034 0.392283 0.105814 -0.691175 -0.714899 139 115 86 255 4
0.069011 -0.011042 0.392572 0.100406 -0.693625 -0.713304 140 115 86 255 4
0.069586 -0.011045 0.392701 0.094442 -0.694883 -0.712895 137 112 84 255 4
0.070167 -0.011050 0.392861 0.088851 -0.697853 -0.710709 139 114 84 255 4
0.070777 -0.011059 0.393182 0.084184 -0.699532 -0.709626 138 113 84 255 4
0.071382 -0.011067 0.393471 0.077126 -0.700987 -0.708992 138 112 85 255 4
0.072083 -0.011090 0.394274 0.080572 -0.707584 -0.702021 134 110 85 255 4
0.072723 -0.011103 0.394739 0.080763 -0.713916 -0.695558 110 98 77 255 4
0.092283 -0.011393 0.405059 0.247316 -0.619643 -0.744901 104 92 75 255 3
0.092426 -0.011341 0.403197 0.244319 -0.645171 -0.723922 117 94 77 255 3
0.092849 -0.011323 0.402571 0.244756 -0.648421 -0.720864 113 89 72 255 3
0.093270 -0.011305 0.401945 0.243072 -0.653988 -0.716391 119 94 72 255 3
0.093749 -0.011295 0.401576 0.241482 -0.655307 -0.715723 123 95 71 255 3
0.094272 -0.011290 0.401400 0.237266 -0.655104 -0.717317 122 94 71 255 3
0.094795 -0.011285 0.401223 0.233196 -0.653550 -0.720064 123 94 71 255 3
0.095317 -0.011280 0.401046 0.231966 -0.652727 -0.721207 122 92 68 255 3
0.095839 -0.011275 0.400870 0.228257 -0.652778 -0.722343 121 90 67 255 3
0.096356 -0.011270 0.400677 0.223856 -0.651562 -0.724814 121 89 67 255 3
0.096838 -0.011260 0.400340 0.220250 -0.653672 -0.724019 121 89 67 255 3
0.097311 -0.011250 0.399971 0.217288 -0.655216 -0.723518 120 88 67 255 3
0.097788 -0.011240 0.399618 0.211709 -0.658357 -0.722320 120 88 66 255 3
0.098342 -0.011239 0.399586 0.207238 -0.652937 -0.728509 119 87 66 255 3
0.098900 -0.011239 0.399570 0.216903 -0.642464 -0.734978 117 85 64 255 3
0.099458 -0.011238 0.399554 0.227709 -0.628040 -0.744120 116 83 62 255 3
0.100011 -0.011237 0.399522 0.239389 -0.613247 -0.752742 115 81 61 255 3
0.100626 -0.011243 0.399730 0.255883 -0.587749 -0.767512 114 80 60 255 3
0.101245 -0.011249 0.399955 0.268052 -0.556243 -0.786602 113 80 59 255 3
0.101844 -0.011253 0.400100 0.272884 -0.536808 -0.798355 112 79 58 255 3
0.102444 -0.011258 0.400244 0.274316 -0.517830 -0.810311 111 79 58 255 3
0.103114 -0.011269 0.400661 0.273803 -0.488853 -0.828284 111 79 57 255 3
0.103777 -0.011280 0.401046 0.279550 -0.474150 -0.834885 110 78 56 255 3
0.104454 -0.011292 0.401480 0.284897 -0.439957 -0.851628 111 78 56 255 3
0.105195 -0.011311 0.402154 0.286974 -0.417006 -0.862411 109 76 53 255 3
0.105929 -0.011329 0.402796 0.288680 -0.395103 -0.872100 106 73 51 255 3
0.106708 -0.011352 0.403598 0.292715 -0.375829 -0.879244 101 70 47 255 3
0.107489 -0.011374 0.404401 0.298012 -0.363019 -0.882840 96 65 44 255 3
0.108332 -0.011403 0.405428 0.301105 -0.344779 -0.889080 90 61 41 255 3
0.109281 -0.011443 0.406840 0.297353 -0.318371 -0.900123 90 66 48 255 3
0.114493 -0.011565 0.411174 0.227027 -0.264178 -0.937373 64 56 42 255 3
0.114802 -0.011538 0.410211 0.228486 -0.258165 -0.938693 68 51 36 255 3
0.115108 -0.011511 0.409248 0.231670 -0.258170 -0.937911 73 53 36 255 3
0.115529 -0.011495 0.408702 0.226461 -0.257581 -0.939344 79 57 40 255 3
0.115963 -0.011481 0.408205 0.221680 -0.256140 -0.940877 87 62 44 255 3
0.116395 -0.011467 0.407707 0.217330 -0.257348 -0.941562 92 65 46 255 3
0.116871 -0.011458 0.407370 0.210437 -0.256875 -0.943256 96 68 49 255 3
0.117370 -0.011451 0.407113 0.203371 -0.256574 -0.944886 97 69 50 255 3
0.117873 -0.011444 0.406872 0.189565 -0.254033 -0.948437 100 72 53 255 3
0.118385 -0.011438 0.406664 0.181719 -0.253795 -0.950035 103 75 56 255 3
0.118928 -0.011435 0.406567 0.163152 -0.248597 -0.954767 106 78 58 255 3
0.119481 -0.011434 0.406503 0.157228 -0.251083 -0.955111 108 82 61 255 3
0.120034 -0.011432 0.406439 0.135602 -0.241035 -0.960996 111 85 63 255 3
0.120625 -0.011434 0.406503 0.121581 -0.240121 -0.963099 113 87 64 255 3
0.121220 -0.011436 0.406584 0.104291 -0.234121 -0.966597 115 87 65 255 3
0.121816 -0.011438 0.406664 0.080560 -0.225254 -0.970964 118 89 65 255 3
0.122446 -0.011444 0.406856 0.063131 -0.220464 -0.973350 119 88 64 255 3
0.123086 -0.011450 0.407081 0.036298 -0.209757 -0.977080 121 90 65 255 3
0.123727 -0.011456 0.407306 0.012313 -0.200676 -0.979580 122 91 65 255 3
0.124383 -0.011464 0.407579 -0.010209 -0.190960 -0.981545 120 90 64 255 3
0.125089 -0.011476 0.408012 -0.035156 -0.181625 -0.982739 116 88 63 255 3
0.125821 -0.011490 0.408526 -0.059211 -0.172404 -0.983245 118 88 65 255 3
0.126847 -0.011532 0.409986 -0.081999 -0.163804 -0.983079 104 86 64 255 3
-0.001132 -0.010753 0.402411 -0.483687 -0.153499 -0.861676 72 58 42 255 1
-0.000564 -0.010708 0.400758 -0.479828 -0.145490 -0.865216 78 56 38 255 1
0.000000 -0.010678 0.399634 -0.477460 -0.144847 -0.866632 81 58 39 255 1
0.000561 -0.010656 0.398783 -0.471834 -0.141275 -0.870296 81 56 37 255 1
0.001119 -0.010633 0.397949 -0.464824 -0.135884 -0.874914 79 52 35 255 1
0.001677 -0.010619 0.397403 -0.456225 -0.127780 -0.880642 79 51 35 255 1
0.002232 -0.010604 0.396857 -0.449271 -0.119556 -0.885360 79 52 36 255 1
0.002787 -0.010590 0.396312 -0.442533 -0.114726 -0.889383 79 52 36 255 1
0.003340 -0.010577 0.395846 -0.433353 -0.113512 -0.894047 80 53 38 255 1
0.003893 -0.010566 0.395445 -0.425891 -0.107666 -0.898346 83 56 39 255 1
0.004445 -0.010556 0.395044 -0.408147 -0.104170 -0.906953 86 58 41 255 1
0.004995 -0.010545 0.394643 -0.392777 -0.100555 -0.914120 90 62 44 255 1
0.005547 -0.010539 0.394434 -0.373914 -0.092810 -0.922808 93 65 46 255 1
0.006099 -0.010535 0.394257 -0.354789 -0.085488 -0.931030 96 69 48 255 1
0.006651 -0.010530 0.394081 -0.323309 -0.085466 -0.942426 100 73 51 255 1
0.007202 -0.010526 0.393936 -0.302668 -0.081424 -0.949612 99 73 52 255 1
0.007754 -0.010523 0.393808 -0.277698 -0.081596 -0.957197 100 74 53 255 1
0.008305 -0.010520 0.393712 -0.254449 -0.080745 -0.963709 101 74 53 255 1
0.008858 -0.010518 0.393648 -0.225984 -0.079861 -0.970852 101 76 54 255 1
0.009410 -0.010518 0.393615 -0.203294 -0.078314 -0.975981 101 76 53 255 1
0.009963 -0.010516 0.393567 -0.177824 -0.077537 -0.981003 104 79 55 255 1
0.010515 -0.010515 0.393535 -0.152293 -0.076870 -0.985341 106 80 56 255 1
0.011068 -0.010514 0.393487 -0.129948 -0.078247 -0.988429 109 82 58 255 1
0.011620 -0.010513 0.393455 -0.105631 -0.075971 -0.991499 110 83 59 255 1
0.012173 -0.010513 0.393439 -0.078674 -0.075530 -0.994035 107 80 56 255 1
0.012724 -0.010511 0.393375 -0.052319 -0.073769 -0.995902 106 79 54 255 1
0.013276 -0.010510 0.393327 -0.024902 -0.070926 -0.997171 107 78 54 255 1
0.013824 -0.010506 0.393182 0.001257 -0.068426 -0.997655 105 75 52 255 1
0.014362 -0.010495 0.392781 0.022345 -0.064021 -0.997698 107 74 52 255 1
0.014863 -0.010459 0.391433 0.042132 -0.055732 -0.997556 123 83 61 255 1
0.015429 -0.010470 0.391818 0.066276 -0.052334 -0.996428 118 77 56 255 1
0.015986 -0.010473 0.391962 0.090928 -0.048880 -0.994657 124 82 58 255 1
0.016546 -0.010479 0.392187 0.115480 -0.045824 -0.992252 133 92 67 255 1
0.017122 -0.010494 0.392733 0.146022 -0.040286 -0.988461 106 71 53 255 1
0.017686 -0.010501 0.392990 0.174693 -0.033540 -0.984051 86 54 39 255 1
0.018227 -0.010494 0.392749 0.192761 -0.029147 -0.980813 93 58 42 255 1
0.018785 -0.010497 0.392861 0.218467 -0.023507 -0.975561 100 65 48 255 1
0.019367 -0.010513 0.393455 0.249890 -0.017025 -0.968125 95 61 46 255 1
0.019922 -0.010514 0.393487 0.275399 -0.013216 -0.961239 107 73 51 255 1
0.020453 -0.010503 0.393070 0.292713 -0.007939 -0.956167 119 85 61 255 1
0.020983 -0.010491 0.392636 0.307368 -0.007589 -0.951561 123 91 66 255 1
0.021539 -0.010493 0.392701 0.329092 -0.001445 -0.944297 127 93 69 255 1
0.022105 -0.010500 0.392957 0.351154 0.001648 -0.936316 125 92 67 255 1
0.022679 -0.010510 0.393327 0.371391 0.003137 -0.928471 123 91 65 255 1
0.023355 -0.010565 0.395397 0.404018 0.000546 -0.914751 119 91 64 255 1
0.023935 -0.010576 0.395798 0.409354 -0.007058 -0.912348 116 88 62 255 1
0.024516 -0.010587 0.396199 0.410814 -0.016117 -0.911577 114 87 62 255 1
0.025098 -0.010597 0.396585 0.399937 -0.026874 -0.916149 113 86 62 255 1
0.025675 -0.010605 0.396890 0.384570 -0.032552 -0.922522 114 87 62 255 1
0.026254 -0.010613 0.397195 0.365486 -0.037826 -0.930048 116 88 63 255 1
0.026837 -0.010623 0.397564 0.344353 -0.048718 -0.937575 117 89 63 255 1
0.027422 -0.010633 0.397933 0.317375 -0.050139 -0.946974 119 90 64 255 1
0.028011 -0.010644 0.398350 0.283757 -0.053607 -0.957397 120 91 64 255 1
0.028600 -0.010655 0.398751 0.246125 -0.061883 -0.967261 119 89 63 255 1
0.029191 -0.010666 0.399169 0.202281 -0.058638 -0.977570 118 89 64 255 1
0.029785 -0.010678 0.399602 0.155281 -0.076003 -0.984942 119 91 66 255 1
0.030378 -0.010689 0.400019 0.111980 -0.092608 -0.989386 123 96 70 255 1
0.030978 -0.010702 0.400501 0.084694 -0.121087 -0.989022 126 101 75 255 1
0.031583 -0.010716 0.401030 0.050250 -0.154016 -0.986790 129 107 82 255 1
0.032184 -0.010728 0.401496 0.024450 -0.186276 -0.982193 131 110 83 255 1
0.032783 -0.010739 0.401913 -0.010110 -0.220534 -0.975327 133 110 83 255 1
0.033395 -0.010754 0.402475 -0.030474 -0.272991 -0.961534 138 111 83 255 1
0.033958 -0.010753 0.402443 -0.080550 -0.307280 -0.948204 141 110 82 255 1
0.034508 -0.010748 0.402250 -0.139950 -0.351649 -0.925612 138 108 80 255 1
0.035012 -0.010729 0.401544 -0.200180 -0.409946 -0.889872 137 105 78 255 1
0.035454 -0.010693 0.400164 -0.276492 -0.459472 -0.844060 136 106 79 255 1
0.035885 -0.010654 0.398703 -0.339482 -0.499320 -0.797140 137 106 79 255 4
0.036349 -0.010625 0.397644 -0.366684 -0.549231 -0.750925 134 103 78 255 4
0.036816 -0.010599 0.396649 -0.394646 -0.584823 -0.708687 133 103 78 255 4
0.037297 -0.010577 0.395830 -0.401847 -0.615480 -0.678014 131 101 77 255 4
0.037771 -0.010554 0.394964 -0.418730 -0.641794 -0.642469 128 100 76 255 4
0.038265 -0.010537 0.394338 -0.431822 -0.652579 -0.622632 128 100 77 255 4
0.038765 -0.010522 0.393776 -0.443210 -0.664817 -0.601318 126 99 76 255 4
0.039259 -0.010506 0.393182 -0.454003 -0.671751 -0.585347 125 98 75 255 4
0.039759 -0.010492 0.392653 -0.462379 -0.672971 -0.577336 125 99 74 255 4
0.040276 -0.010483 0.392315 -0.467541 -0.672511 -0.573703 127 100 75 255 4
0.040791 -0.010473 0.391962 -0.459356 -0.673725 -0.578866 129 100 75 255 4
0.041308 -0.010465 0.391641 -0.443741 -0.674132 -0.590458 130 101 76 255 4
0.041827 -0.010457 0.391336 -0.426055 -0.673059 -0.604540 129 102 76 255 4
0.042341 -0.010448 0.390999 -0.405010 -0.672018 -0.619967 129 102 76 255 4
0.042845 -0.010437 0.390582 -0.387892 -0.669418 -0.633577 130 103 77 255 4
0.043353 -0.010427 0.390213 -0.369039 -0.667163 -0.647074 129 104 78 255 4
0.043866 -0.010418 0.389892 -0.347200 -0.664175 -0.662061 130 105 79 255 4
0.044377 -0.010409 0.389571 -0.328991 -0.663827 -0.671638 130 105 79 255 4
0.044892 -0.010402 0.389282 -0.311275 -0.659588 -0.684143 130 105 80 255 4
0.045409 -0.010395 0.389025 -0.296941 -0.658330 -0.691685 129 105 79 255 4
0.045924 -0.010388 0.388752 -0.277911 -0.655732 -0.701984 130 106 80 255 4
0.046442 -0.010381 0.388512 -0.259350 -0.655382 -0.709374 132 108 82 255 4
0.046963 -0.010376 0.388303 -0.241762 -0.653437 -0.717336 134 110 83 255 4
0.047482 -0.010370 0.388078 -0.223469 -0.651476 -0.725011 135 110 84 255 4
0.047996 -0.010363 0.387822 -0.205344 -0.649274 -0.732309 136 111 84 255 4
0.048515 -0.010357 0.387613 -0.187068 -0.647908 -0.738391 137 112 86 255 4
0.049038 -0.010352 0.387436 -0.169189 -0.646094 -0.744270 137 113 87 255 4
0.049560 -0.010348 0.387260 -0.149066 -0.644523 -0.749913 138 114 88 255 4
0.050086 -0.010344 0.387115 -0.129801 -0.644225 -0.753741 138 115 89 255 4
0.050616 -0.010341 0.387003 -0.108808 -0.645188 -0.756237 139 116 91 255 4
0.051152 -0.010339 0.386939 -0.089462 -0.644959 -0.758963 140 117 91 255 4
0.051702 -0.010340 0.386987 -0.069044 -0.645407 -0.760712 139 116 90 255 4
0.052253 -0.010342 0.387035 -0.048032 -0.647815 -0.760282 140 116 90 255 4
0.052806 -0.010343 0.387099 -0.025657 -0.649755 -0.759711 139 116 88 255 4
0.053364 -0.010346 0.387196 -0.004984 -0.652208 -0.758024 138 114 86 255 4
0.053922 -0.010349 0.387292 0.015641 -0.654242 -0.756123 137 113 85 255 4
0.054480 -0.010351 0.387388 0.031894 -0.656173 -0.753936 137 114 86 255 4
0.055041 -0.010354 0.387501 0.050959 -0.657087 -0.752090 137 114 86 255 4
0.055602 -0.010357 0.387613 0.068350 -0.658380 -0.749576 137 114 86 255 4
0.056161 -0.010360 0.387709 0.082696 -0.660169 -0.746551 138 114 86 255 4
0.056713 -0.010361 0.387757 0.097682 -0.659862 -0.745010 139 114 86 255 4
0.057268 -0.010363 0.387822 0.110532 -0.660480 -0.742663 139 114 87 255 4
0.057842 -0.010368 0.388014 0.121555 -0.663286 -0.738428 138 114 87 255 4
0.058414 -0.010373 0.388191 0.132156 -0.665985 -0.734165 138 114 87 255 4
0.058989 -0.010378 0.388383 0.140328 -0.667606 -0.731171 138 114 87 255 4
0.059563 -0.010382 0.388560 0.147567 -0.669659 -0.727861 138 114 87 255 4
0.060141 -0.010388 0.388769 0.152045 -0.670755 -0.725927 138 114 87 255 4
0.060726 -0.010394 0.389009 0.156024 -0.673146 -0.722863 138 114 87 255 4
0.061311 -0.010401 0.389250 0.157028 -0.675509 -0.720437 139 114 88 255 4
0.061907 -0.010409 0.389555 0.157302 -0.676740 -0.719221 138 114 88 255 4
0.062506 -0.010418 0.389876 0.155863 -0.678030 -0.718319 136 113 86 255 4
0.063093 -0.010424 0.390117 0.152630 -0.679223 -0.717886 136 113 87 255 4
0.063665 -0.010428 0.390261 0.148707 -0.678964 -0.718954 136 112 86 255 4
0.064238 -0.010432 0.390406 0.143807 -0.679580 -0.719368 137 112 87 255 4
0.064832 -0.010439 0.390678 0.138772 -0.680268 -0.719706 136 111 86 255 4
0.065438 -0.010448 0.391015 0.132586 -0.681347 -0.719852 136 112 87 255 4
0.066004 -0.010451 0.391112 0.126581 -0.681024 -0.721238 136 113 87 255 4
0.066560 -0.010452 0.391144 0.121566 -0.681706 -0.721456 136 113 87 255 4
0.067118 -0.010453 0.391192 0.114731 -0.682265 -0.722047 138 115 88 255 4
0.067679 -0.010455 0.391256 0.108969 -0.683375 -0.721889 137 115 87 255 4
0.068263 -0.010460 0.391449 0.101949 -0.684776 -0.721588 139 115 88 255 4
0.068836 -0.010463 0.391577 0.095711 -0.686647 -0.720663 140 115 88 255 4
0.069401 -0.010465 0.391657 0.088974 -0.688269 -0.719979 141 116 89 255 4
0.069966 -0.010467 0.391738 0.083241 -0.690162 -0.718852 141 115 88 255 4
0.070537 -0.010470 0.391850 0.077538 -0.693080 -0.716678 140 114 87 255 4
0.071129 -0.010476 0.392075 0.071877 -0.695118 -0.715293 139 114 86 255 4
0.071736 -0.010485 0.392380 0.066226 -0.697748 -0.713275 140 112 85 255 4
0.072332 -0.010491 0.392620 0.061845 -0.699302 -0.712146 139 109 83 255 4
0.072917 -0.010496 0.392797 0.063069 -0.706412 -0.704985 140 111 85 255 4
0.073533 -0.010505 0.393134 0.067208 -0.713904 -0.697011 139 112 86 255 4
0.074176 -0.010518 0.393615 0.068555 -0.719180 -0.691433 131 112 87 255 4
0.074809 -0.010529 0.394033 0.073944 -0.727037 -0.682605 120 108 85 255 4
0.091683 -0.010753 0.402427 0.241853 -0.671280 -0.700636 108 102 92 255 3
0.092084 -0.010734 0.401704 0.242778 -0.673894 -0.697801 112 108 98 255 3
0.092482 -0.010714 0.400982 0.240154 -0.681945 -0.690853 112 107 95 255 3
0.092964 -0.010705 0.400629 0.241800 -0.680121 -0.692076 111 102 87 255 3
0.093629 -0.010717 0.401062 0.238458 -0.671565 -0.701526 117 99 80 255 3
0.094155 -0.010712 0.400902 0.236513 -0.669288 -0.704355 120 96 76 255 3
0.094677 -0.010708 0.400725 0.235117 -0.668641 -0.705436 124 96 73 255 3
0.095199 -0.010703 0.400549 0.231679 -0.666694 -0.708409 122 93 70 255 3
0.095720 -0.010698 0.400372 0.227984 -0.665450 -0.710774 121 92 68 255 3
0.096233 -0.010693 0.400164 0.226420 -0.663411 -0.713176 122 91 68 255 3
0.096706 -0.010683 0.399795 0.221974 -0.667285 -0.710955 122 90 68 255 3
0.097190 -0.010674 0.399474 0.219011 -0.667657 -0.711525 121 89 67 255 3
0.097693 -0.010668 0.399233 0.216495 -0.667366 -0.712568 120 87 66 255 3
0.098251 -0.010667 0.399217 0.211095 -0.665926 -0.715529 119 86 65 255 3
0.098804 -0.010666 0.399185 0.200658 -0.666249 -0.718226 117 84 63 255 3
0.099362 -0.010666 0.399169 0.213185 -0.654227 -0.725630 116 83 62 255 3
0.099927 -0.010666 0.399185 0.233060 -0.635152 -0.736387 115 81 61 255 3
0.100545 -0.010672 0.399409 0.247039 -0.612871 -0.750573 113 79 59 255 3
0.101164 -0.010678 0.399634 0.261855 -0.582183 -0.769737 112 80 59 255 3
0.101783 -0.010684 0.399859 0.275074 -0.553480 -0.786126 111 79 58 255 3
0.102415 -0.010692 0.400132 0.277140 -0.531736 -0.800281 111 80 58 255 3
0.103085 -0.010703 0.400549 0.275624 -0.501839 -0.819871 110 78 57 255 3
0.103731 -0.010711 0.400870 0.286483 -0.477617 -0.830548 110 78 56 255 3
0.104429 -0.010725 0.401383 0.289718 -0.448357 -0.845600 109 77 54 255 3
0.105174 -0.010744 0.402074 0.288086 -0.423573 -0.858832 108 76 53 255 3
0.105950 -0.010765 0.402876 0.290911 -0.400664 -0.868815 103 71 49 255 3
0.106738 -0.010787 0.403711 0.292982 -0.378802 -0.877878 97 65 44 255 3
0.107519 -0.010809 0.404513 0.299679 -0.363341 -0.882143 92 62 42 255 3
0.108469 -0.010847 0.405942 0.302784 -0.343255 -0.889099 90 63 44 255 3
0.120749 -0.012012 0.449532 0.676149 -0.675479 -0.294195 81 72 55 255 3
0.114932 -0.010973 0.410676 0.223223 -0.256747 -0.940347 64 51 37 255 3
0.115266 -0.010950 0.409809 0.224045 -0.256652 -0.940177 69 50 35 255 3
0.115606 -0.010928 0.408975 0.223851 -0.256675 -0.940217 73 53 37 255 3
0.116036 -0.010914 0.408461 0.218870 -0.257153 -0.941259 80 57 41 255 3
0.116468 -0.010901 0.407964 0.212458 -0.257727 -0.942570 88 62 44 255 3
0.116899 -0.010888 0.407466 0.208349 -0.259387 -0.943032 93 65 47 255 3
0.117384 -0.010880 0.407161 0.201701 -0.261010 -0.944029 95 67 49 255 3
0.117887 -0.010873 0.406921 0.190304 -0.260347 -0.946575 98 69 51 255 3
0.118385 -0.010866 0.406664 0.181316 -0.258320 -0.948891 101 73 53 255 3
0.118905 -0.010861 0.406487 0.164371 -0.254894 -0.952896 103 75 55 255 3
0.119458 -0.010860 0.406423 0.153877 -0.253935 -0.954903 106 79 58 255 3
0.120010 -0.010858 0.406359 0.131972 -0.245678 -0.960326 108 82 60 255 3
0.120567 -0.010857 0.406311 0.117596 -0.242959 -0.962882 111 85 62 255 3
0.121163 -0.010859 0.406391 0.104896 -0.240159 -0.965049 113 86 64 255 3
0.121754 -0.010861 0.406455 0.077012 -0.229626 -0.970227 115 87 64 255 3
0.122364 -0.010864 0.406584 0.060120 -0.225003 -0.972502 118 88 65 255 3
0.122999 -0.010870 0.406792 0.033148 -0.214039 -0.976262 121 90 65 255 3
0.123639 -0.010876 0.407017 0.006856 -0.202982 -0.979158 122 91 66 255 3
0.124275 -0.010881 0.407226 -0.013070 -0.196123 -0.980492 120 90 65 255 3
0.124951 -0.010890 0.407563 -0.042356 -0.183703 -0.982069 117 89 63 255 3
0.125638 -0.010900 0.407932 -0.063758 -0.176695 -0.982198 116 88 62 255 3
0.126400 -0.010916 0.408542 -0.081577 -0.170097 -0.982045 115 87 62 255 3
0.139740 -0.012014 0.449612 0.695404 -0.654040 -0.297734 99 86 65 255 3
-0.001132 -0.010184 0.402298 -0.484355 -0.133971 -0.864553 70 57 41 255 1
-0.000564 -0.010146 0.400806 -0.480297 -0.131424 -0.867204 78 56 38 255 1
0.000000 -0.010117 0.399666 -0.474521 -0.129392 -0.870682 81 58 39 255 1
0.000561 -0.010096 0.398816 -0.467551 -0.125404 -0.875025 81 56 36 255 1
0.001119 -0.010074 0.397965 -0.459464 -0.139825 -0.877121 80 52 34 255 1
0.001677 -0.010059 0.397387 -0.446912 -0.131432 -0.884870 80 51 34 255 1
0.002232 -0.010046 0.396857 -0.443729 -0.124523 -0.887467 82 52 35 255 1
0.002787 -0.010032 0.396312 -0.436864 -0.120516 -0.891418 82 52 35 255 1
0.003340 -0.010020 0.395814 -0.426538 -0.115349 -0.897084 82 52 36 255 1
0.003892 -0.010009 0.395397 -0.414011 -0.102761 -0.904453 82 53 37 255 1
0.004444 -0.009999 0.394996 -0.404004 -0.094225 -0.909892 86 56 40 255 1
0.004994 -0.009989 0.394595 -0.384453 -0.092712 -0.918477 89 61 43 255 1
0.005546 -0.009982 0.394338 -0.368062 -0.078894 -0.926448 91 65 45 255 1
0.006098 -0.009978 0.394161 -0.349241 -0.071903 -0.934270 94 68 47 255 1
0.006649 -0.009974 0.394001 -0.323667 -0.063531 -0.944036 100 74 52 255 1
0.007201 -0.009970 0.393856 -0.304288 -0.060739 -0.950642 101 74 53 255 1
0.007752 -0.009967 0.393728 -0.274395 -0.059469 -0.959776 102 76 54 255 1
0.008304 -0.009964 0.393632 -0.249734 -0.057471 -0.966608 101 75 53 255 1
0.008857 -0.009964 0.393599 -0.224435 -0.055840 -0.972888 102 76 54 255 1
0.009409 -0.009962 0.393551 -0.201825 -0.053527 -0.977958 102 78 55 255 1
0.009962 -0.009962 0.393519 -0.178795 -0.049433 -0.982644 103 78 55 255 1
0.010514 -0.009960 0.393471 -0.152208 -0.049728 -0.987097 106 81 57 255 1
0.011066 -0.009960 0.393439 -0.128693 -0.047874 -0.990528 109 83 58 255 1
0.011619 -0.009959 0.393423 -0.102681 -0.047876 -0.993561 109 83 59 255 1
0.012172 -0.009959 0.393407 -0.076354 -0.047424 -0.995952 107 81 57 255 1
0.012723 -0.009958 0.393359 -0.049520 -0.045138 -0.997753 104 79 54 255 1
0.013273 -0.009955 0.393262 -0.022119 -0.043546 -0.998807 104 76 53 255 1
0.013822 -0.009952 0.393134 0.004243 -0.041715 -0.999121 100 72 49 255 1
0.014368 -0.009947 0.392941 0.028416 -0.038473 -0.998856 100 70 48 255 1
0.014852 -0.009901 0.391128 0.044070 -0.034354 -0.998438 120 82 59 255 1
0.015411 -0.009907 0.391369 0.068767 -0.030014 -0.997181 125 83 59 255 1
0.015965 -0.009909 0.391449 0.092389 -0.025497 -0.995396 124 81 56 255 1
0.016521 -0.009913 0.391593 0.113910 -0.022067 -0.993246 135 93 67 255 1
0.017102 -0.009930 0.392283 0.144233 -0.014847 -0.989432 127 90 66 255 1
0.017676 -0.009943 0.392781 0.172546 -0.011657 -0.984933 103 71 52 255 1
0.018226 -0.009941 0.392717 0.199293 -0.001418 -0.979939 97 64 46 255 1
0.018777 -0.009941 0.392701 0.221099 0.001301 -0.975251 106 69 50 255 1
0.019344 -0.009949 0.393006 0.248845 0.006179 -0.968524 106 70 50 255 1
0.019901 -0.009951 0.393086 0.273463 0.011501 -0.961814 113 79 56 255 1
0.020426 -0.009937 0.392556 0.289736 0.015205 -0.956986 119 84 60 255 1
0.020964 -0.009930 0.392283 0.307251 0.018074 -0.951457 123 88 64 255 1
0.021523 -0.009934 0.392412 0.327611 0.020326 -0.944594 128 92 67 255 1
0.022095 -0.009943 0.392781 0.350697 0.025003 -0.936155 120 87 62 255 1
0.022674 -0.009954 0.393230 0.369720 0.028697 -0.928700 115 86 60 255 1
0.023362 -0.010012 0.395525 0.402982 0.025580 -0.914850 112 85 59 255 1
0.023943 -0.010023 0.395927 0.404853 0.017812 -0.914208 112 85 60 255 1
0.024523 -0.010032 0.396312 0.401776 0.008800 -0.915696 111 85 60 255 1
0.025104 -0.010042 0.396681 0.390331 -0.000359 -0.920675 112 85 61 255 1
0.025682 -0.010049 0.396986 0.373204 -0.009419 -0.927702 114 87 62 255 1
0.026260 -0.010057 0.397291 0.355661 -0.016359 -0.934472 116 88 63 255 1
0.026842 -0.010066 0.397628 0.339784 -0.018460 -0.940322 117 89 63 255 1
0.027425 -0.010075 0.397981 0.308653 -0.022737 -0.950903 119 90 63 255 1
0.028012 -0.010084 0.398366 0.269075 -0.015919 -0.962988 119 89 63 255 1
0.028599 -0.010094 0.398735 0.229366 -0.025380 -0.973009 120 89 63 255 1
0.029189 -0.010104 0.399137 0.183602 -0.042606 -0.982077 119 89 63 255 1
0.029772 -0.010111 0.399425 0.138555 -0.058173 -0.988645 120 91 66 255 1
0.030362 -0.010121 0.399811 0.092482 -0.079581 -0.992529 123 96 70 255 1
0.030956 -0.010131 0.400212 0.035606 -0.111291 -0.993150 126 103 77 255 1
0.031539 -0.010137 0.400469 -0.008581 -0.140207 -0.990085 127 107 82 255 1
0.032123 -0.010144 0.400725 -0.038146 -0.181125 -0.982720 129 109 83 255 1
0.032715 -0.010153 0.401079 -0.073125 -0.225849 -0.971414 130 109 82 255 1
0.033280 -0.010153 0.401095 -0.122393 -0.263985 -0.956730 132 108 80 255 1
0.033825 -0.010148 0.400870 -0.184224 -0.318003 -0.930019 135 105 78 255 1
0.034366 -0.010141 0.400597 -0.225145 -0.367527 -0.902349 136 104 77 255 1
0.034861 -0.010121 0.399811 -0.285940 -0.417906 -0.862318 135 104 77 255 1
0.035339 -0.010097 0.398864 -0.339415 -0.463117 -0.818731 135 105 79 255 4
0.035800 -0.010069 0.397756 -0.376318 -0.505856 -0.776205 133 102 77 255 4
0.036269 -0.010044 0.396761 -0.401078 -0.555133 -0.728673 131 101 76 255 4
0.036737 -0.010019 0.395798 -0.421122 -0.591822 -0.687316 129 101 76 255 4
0.037215 -0.009998 0.394964 -0.429507 -0.617616 -0.658843 129 102 77 255 4
0.037699 -0.009979 0.394209 -0.443364 -0.638713 -0.628868 126 100 76 255 4
0.038198 -0.009965 0.393648 -0.451189 -0.650034 -0.611461 127 101 77 255 4
0.038698 -0.009951 0.393102 -0.462982 -0.656546 -0.595479 125 100 76 255 4
0.039193 -0.009936 0.392524 -0.471979 -0.657948 -0.586806 126 100 76 255 4
0.039703 -0.009926 0.392107 -0.478671 -0.658029 -0.581268 125 99 74 255 4
0.040218 -0.009917 0.391754 -0.475734 -0.658874 -0.582720 128 101 76 255 4
0.040734 -0.009908 0.391417 -0.460698 -0.658867 -0.594686 130 101 76 255 4
0.041251 -0.009900 0.391096 -0.443470 -0.657645 -0.608964 130 102 76 255 4
0.041768 -0.009892 0.390791 -0.423708 -0.655412 -0.625225 130 101 75 255 4
0.042280 -0.009884 0.390438 -0.404698 -0.654895 -0.638226 130 101 76 255 4
0.042785 -0.009873 0.390036 -0.385786 -0.653018 -0.651718 130 102 77 255 4
0.043290 -0.009864 0.389651 -0.364250 -0.648754 -0.668162 130 103 77 255 4
0.043802 -0.009856 0.389330 -0.348629 -0.646400 -0.678693 129 104 77 255 4
0.044315 -0.009848 0.389025 -0.329267 -0.642221 -0.692196 130 104 78 255 4
0.044829 -0.009840 0.388736 -0.311301 -0.639233 -0.703188 129 104 78 255 4
0.045344 -0.009834 0.388464 -0.295080 -0.637234 -0.711941 129 104 78 255 4
0.045858 -0.009827 0.388191 -0.277184 -0.633101 -0.722740 130 105 80 255 4
0.046373 -0.009820 0.387934 -0.259816 -0.632009 -0.730109 131 106 80 255 4
0.046891 -0.009814 0.387709 -0.243240 -0.629575 -0.737882 132 107 81 255 4
0.047409 -0.009809 0.387485 -0.224489 -0.627467 -0.745580 132 107 82 255 4
0.047930 -0.009804 0.387292 -0.207792 -0.625994 -0.751634 135 108 83 255 4
0.048449 -0.009799 0.387083 -0.188406 -0.623681 -0.758633 135 109 84 255 4
0.048971 -0.009794 0.386907 -0.169129 -0.623209 -0.763548 136 111 86 255 4
0.049497 -0.009791 0.386762 -0.150686 -0.621821 -0.768526 137 113 87 255 4
0.050020 -0.009786 0.386602 -0.131667 -0.621152 -0.772550 138 114 88 255 4
0.050542 -0.009782 0.386441 -0.112645 -0.619820 -0.776617 139 116 91 255 4
0.051082 -0.009782 0.386409 -0.091828 -0.620562 -0.778762 138 116 90 255 4
0.051629 -0.009782 0.386441 -0.072776 -0.622164 -0.779497 139 117 91 255 4
0.052179 -0.009784 0.386489 -0.052804 -0.625158 -0.778710 138 115 89 255 4
0.052727 -0.009784 0.386522 -0.031825 -0.625475 -0.779594 137 115 88 255 4
0.053277 -0.009786 0.386570 -0.010240 -0.627345 -0.778674 136 113 85 255 4
0.053832 -0.009788 0.386650 0.009300 -0.629269 -0.777132 136 112 85 255 4
0.054392 -0.009791 0.386762 0.031984 -0.632099 -0.774228 137 113 86 255 4
0.054952 -0.009793 0.386875 0.049218 -0.634767 -0.771135 137 113 86 255 4
0.055510 -0.009796 0.386971 0.065785 -0.638475 -0.766826 137 113 85 255 4
0.056072 -0.009799 0.387099 0.081577 -0.640587 -0.763540 137 112 84 255 4
0.056633 -0.009802 0.387212 0.095969 -0.642008 -0.760668 139 113 86 255 4
0.057197 -0.009805 0.387340 0.108944 -0.642848 -0.758207 139 113 86 255 4
0.057763 -0.009809 0.387485 0.120321 -0.646214 -0.753612 138 114 86 255 4
0.058332 -0.009813 0.387645 0.129996 -0.647831 -0.750611 138 113 86 255 4
0.058902 -0.009817 0.387806 0.139322 -0.651216 -0.745994 138 114 86 255 4
0.059474 -0.009821 0.387982 0.146933 -0.655015 -0.741192 138 114 87 255 4
0.060054 -0.009827 0.388207 0.153400 -0.658546 -0.736740 138 114 87 255 4
0.060645 -0.009834 0.388496 0.157436 -0.661748 -0.733009 138 113 86 255 4
0.061235 -0.009841 0.388769 0.160250 -0.664116 -0.730253 139 114 86 255 4
0.061820 -0.009847 0.389009 0.159140 -0.666645 -0.728189 138 113 87 255 4
0.062418 -0.009856 0.389330 0.157485 -0.668803 -0.726568 138 114 87 255 4
0.062997 -0.009860 0.389523 0.155181 -0.670591 -0.725414 137 113 87 255 4
0.063581 -0.009866 0.389748 0.149806 -0.672089 -0.725159 138 114 87 255 4
0.064169 -0.009872 0.389988 0.145525 -0.672470 -0.725676 136 112 87 255 4
0.064744 -0.009876 0.390149 0.139419 -0.673472 -0.725946 136 112 86 255 4
0.065336 -0.009883 0.390406 0.132562 -0.675419 -0.725422 137 113 87 255 4
0.065896 -0.009884 0.390470 0.125855 -0.675815 -0.726247 136 113 87 255 4
0.066453 -0.009886 0.390518 0.118664 -0.674143 -0.729006 136 113 87 255 4
0.067008 -0.009886 0.390550 0.113315 -0.674887 -0.729169 136 113 87 255 4
0.067563 -0.009887 0.390582 0.106161 -0.676056 -0.729162 136 114 87 255 4
0.068118 -0.009888 0.390614 0.098107 -0.678093 -0.728399 137 115 88 255 4
0.068678 -0.009890 0.390678 0.090392 -0.678625 -0.728901 139 116 89 255 4
0.069242 -0.009892 0.390759 0.083572 -0.680167 -0.728278 140 117 90 255 4
0.069806 -0.009894 0.390839 0.077033 -0.682322 -0.726982 139 116 89 255 4
0.070367 -0.009895 0.390903 0.071254 -0.684587 -0.725440 140 115 89 255 4
0.070931 -0.009897 0.390983 0.065041 -0.687523 -0.723244 142 117 90 255 4
0.071505 -0.009901 0.391112 0.059939 -0.690755 -0.720600 140 113 86 255 4
0.072081 -0.009904 0.391256 0.053933 -0.692481 -0.719418 139 111 85 255 4
0.072679 -0.009911 0.391513 0.049188 -0.695470 -0.716870 138 111 84 255 4
0.073272 -0.009916 0.391738 0.047509 -0.698811 -0.713727 137 110 83 255 4
0.073850 -0.009920 0.391882 0.052593 -0.707940 -0.704312 137 111 83 255 4
0.074413 -0.009922 0.391946 0.055348 -0.715052 -0.696877 138 111 83 255 4
0.074992 -0.009925 0.392091 0.056031 -0.718678 -0.693082 136 108 81 255 4
0.075574 -0.009929 0.392251 0.058927 -0.724297 -0.686966 135 110 83 255 4
0.076204 -0.009940 0.392653 0.067606 -0.734339 -0.675408 136 113 86 255 4
0.076860 -0.009953 0.393182 0.088663 -0.754553 -0.650222 133 112 86 255 4
0.077485 -0.009962 0.393551 0.111348 -0.777860 -0.618495 128 110 85 255 4
0.078118 -0.009973 0.393953 0.123891 -0.792614 -0.597004 130 112 87 255 4
0.078800 -0.009989 0.394595 0.137785 -0.808745 -0.571793 132 116 89 255 4
0.079365 -0.009990 0.394643 0.142590 -0.816770 -0.559066 133 114 87 255 4
0.079904 -0.009988 0.394562 0.145297 -0.821126 -0.551943 134 113 87 255 4
0.080449 -0.009987 0.394514 0.147582 -0.824623 -0.546093 132 112 86 255 4
0.081004 -0.009987 0.394514 0.149834 -0.828674 -0.539304 135 112 86 255 4
0.081555 -0.009986 0.394498 0.150636 -0.830737 -0.535896 134 115 88 255 4
0.082110 -0.009986 0.394498 0.152946 -0.831040 -0.534771 134 114 87 255 4
0.082712 -0.009992 0.394723 0.154878 -0.829982 -0.535857 134 111 85 255 4
0.083467 -0.010016 0.395670 0.159781 -0.827023 -0.538983 123 105 81 255 4
0.084309 -0.010050 0.397018 0.167498 -0.816868 -0.551971 115 104 81 255 4
0.091139 -0.010189 0.402523 0.242906 -0.677330 -0.694421 110 110 99 255 3
0.091537 -0.010171 0.401785 0.240228 -0.685855 -0.686945 111 111 100 255 3
0.091937 -0.010153 0.401062 0.240662 -0.689843 -0.682787 110 110 99 255 3
0.092334 -0.010134 0.400340 0.239395 -0.694795 -0.678196 111 111 99 255 3
0.092849 -0.010129 0.400132 0.240695 -0.692949 -0.679624 114 115 102 255 3
0.093370 -0.010124 0.399955 0.237131 -0.692449 -0.681383 113 111 99 255 3
0.093895 -0.010120 0.399795 0.237475 -0.689518 -0.684230 118 110 96 255 3
0.094556 -0.010131 0.400212 0.233654 -0.680111 -0.694877 122 104 85 255 3
0.095084 -0.010127 0.400067 0.232301 -0.679126 -0.696293 121 97 76 255 3
0.095601 -0.010122 0.399875 0.229499 -0.678091 -0.698228 122 93 71 255 3
0.096105 -0.010116 0.399634 0.225544 -0.679320 -0.698322 123 92 69 255 3
0.096594 -0.010109 0.399329 0.222882 -0.680528 -0.698001 122 90 67 255 3
0.097097 -0.010103 0.399088 0.219744 -0.680130 -0.699382 122 89 67 255 3
0.097603 -0.010097 0.398864 0.215432 -0.680437 -0.700424 120 87 66 255 3
0.098156 -0.010096 0.398832 0.210425 -0.679373 -0.702975 119 86 65 255 3
0.098713 -0.010096 0.398816 0.206229 -0.675005 -0.708406 117 84 63 255 3
0.099266 -0.010095 0.398783 0.198837 -0.673908 -0.711555 116 82 61 255 3
0.099851 -0.010097 0.398880 0.215141 -0.657497 -0.722089 115 82 61 255 3
0.100472 -0.010103 0.399120 0.237921 -0.632336 -0.737254 113 80 59 255 3
0.101090 -0.010109 0.399345 0.254566 -0.605547 -0.753996 112 79 58 255 3
0.101709 -0.010115 0.399570 0.275366 -0.575872 -0.769770 112 80 58 255 3
0.102382 -0.010126 0.400003 0.281279 -0.544305 -0.790326 110 79 57 255 3
0.103056 -0.010137 0.400437 0.281449 -0.512679 -0.811139 109 77 56 255 3
0.103702 -0.010145 0.400758 0.289823 -0.484354 -0.825472 110 78 56 255 3
0.104429 -0.010161 0.401383 0.292507 -0.459282 -0.838749 108 76 53 255 3
0.105178 -0.010179 0.402090 0.292722 -0.429894 -0.854111 104 73 50 255 3
0.105980 -0.010201 0.402988 0.293027 -0.402107 -0.867436 100 69 47 255 3
0.106767 -0.010222 0.403823 0.294869 -0.385406 -0.874365 94 62 42 255 3
0.107664 -0.010254 0.405059 0.301343 -0.364897 -0.880933 91 62 43 255 3
0.108932 -0.010320 0.407675 0.300700 -0.324937 -0.896658 86 67 49 255 3
0.115260 -0.010426 0.411848 0.212964 -0.253405 -0.943627 62 59 47 255 3
0.115433 -0.010389 0.410403 0.218287 -0.254427 -0.942135 65 49 36 255 3
0.115765 -0.010367 0.409537 0.217966 -0.257474 -0.941381 68 50 36 255 3
0.116113 -0.010347 0.408734 0.213879 -0.259276 -0.941824 72 53 38 255 3
0.116546 -0.010334 0.408237 0.208896 -0.259758 -0.942809 80 57 41 255 3
0.116973 -0.010321 0.407723 0.204688 -0.262687 -0.942920 88 61 44 255 3
0.117403 -0.010309 0.407226 0.197897 -0.263808 -0.944056 91 64 46 255 3
0.117901 -0.010302 0.406969 0.187141 -0.262727 -0.946548 96 67 49 255 3
0.118399 -0.010296 0.406712 0.181195 -0.265349 -0.946973 98 70 51 255 3
0.118895 -0.010289 0.406455 0.159702 -0.257108 -0.953095 101 73 53 255 3
0.119434 -0.010286 0.406343 0.150213 -0.256765 -0.954729 104 76 56 255 3
0.119982 -0.010284 0.406263 0.136199 -0.255783 -0.957092 106 79 58 255 3
0.120534 -0.010283 0.406198 0.114587 -0.246248 -0.962409 108 82 60 255 3
0.121105 -0.010283 0.406198 0.099826 -0.244565 -0.964481 112 85 62 255 3
0.121696 -0.010284 0.406263 0.076883 -0.235717 -0.968776 115 87 63 255 3
0.122296 -0.010287 0.406359 0.054822 -0.228012 -0.972114 118 88 65 255 3
0.122911 -0.010290 0.406503 0.030564 -0.218959 -0.975255 119 89 65 255 3
0.123556 -0.010296 0.406744 0.001729 -0.206387 -0.978469 121 91 65 255 3
0.124192 -0.010302 0.406953 -0.018022 -0.200286 -0.979572 121 91 65 255 3
0.124823 -0.010306 0.407145 -0.043911 -0.189349 -0.980928 119 91 65 255 3
0.125504 -0.010315 0.407498 -0.068628 -0.180516 -0.981175 116 89 63 255 3
0.126192 -0.010325 0.407867 -0.088270 -0.173629 -0.980847 115 87 62 255 3
0.126970 -0.010341 0.408526 -0.105929 -0.167625 -0.980143 118 90 66 255 3
0.140147 -0.011363 0.448890 0.688209 -0.662048 -0.296749 102 86 66 255 3
-0.001132 -0.009622 0.402459 -0.488163 -0.105855 -0.866309 72 58 41 255 1
-0.000564 -0.009586 0.400966 -0.482166 -0.110948 -0.869026 79 57 39 255 1
0.000000 -0.009556 0.399698 -0.470599 -0.126129 -0.873286 80 57 38 255 1
0.000561 -0.009536 0.398848 -0.463749 -0.128135 -0.876652 81 55 36 255 1
0.001119 -0.009515 0.397997 -0.448499 -0.134670 -0.883579 81 53 35 255 1
0.001677 -0.009500 0.397371 -0.439062 -0.134416 -0.888345 82 54 35 255 1
0.002232 -0.009488 0.396841 -0.434510 -0.127933 -0.891535 83 54 35 255 1
0.002787 -0.009475 0.396296 -0.426898 -0.127117 -0.895321 86 54 36 255 1
0.003340 -0.009462 0.395782 -0.418231 -0.130399 -0.898932 85 51 35 255 1
0.003892 -0.009452 0.395365 -0.403922 -0.117072 -0.907271 82 51 36 255 1
0.004443 -0.009442 0.394948 -0.392336 -0.109360 -0.913298 85 55 38 255 1
0.004994 -0.009433 0.394546 -0.374039 -0.100309 -0.921972 88 60 42 255 1
0.005544 -0.009425 0.394241 -0.352223 -0.091186 -0.931463 91 64 44 255 1
0.006096 -0.009422 0.394081 -0.340475 -0.062274 -0.938189 96 70 48 255 1
0.006648 -0.009418 0.393920 -0.314642 -0.052179 -0.947775 99 72 50 255 1
0.007199 -0.009414 0.393776 -0.295784 -0.041650 -0.954346 101 74 52 255 1
0.007750 -0.009411 0.393632 -0.269542 -0.038985 -0.962199 102 76 54 255 1
0.008303 -0.009410 0.393583 -0.245674 -0.035771 -0.968692 101 75 53 255 1
0.008855 -0.009409 0.393551 -0.221666 -0.031636 -0.974609 103 77 54 255 1
0.009408 -0.009408 0.393519 -0.201128 -0.028231 -0.979158 105 79 55 255 1
0.009961 -0.009407 0.393487 -0.173229 -0.024006 -0.984589 104 79 55 255 1
0.010513 -0.009407 0.393455 -0.147975 -0.023107 -0.988721 106 80 56 255 1
0.011066 -0.009406 0.393439 -0.127510 -0.019020 -0.991655 108 82 57 255 1
0.011619 -0.009405 0.393407 -0.100495 -0.020145 -0.994734 108 82 57 255 1
0.012171 -0.009405 0.393375 -0.073740 -0.017115 -0.997131 106 80 56 255 1
0.012722 -0.009404 0.393327 -0.048395 -0.016531 -0.998691 102 78 54 255 1
0.013272 -0.009401 0.393230 -0.020156 -0.013649 -0.999704 101 75 52 255 1
0.013822 -0.009399 0.393134 0.004998 -0.012238 -0.999913 98 71 49 255 1
0.014367 -0.009394 0.392925 0.032209 -0.009392 -0.999437 92 64 42 255 1
0.014852 -0.009351 0.391128 0.046581 -0.004435 -0.998905 101 69 47 255 1
0.015392 -0.009345 0.390887 0.068639 -0.003797 -0.997634 124 84 60 255 1
0.015951 -0.009351 0.391112 0.092685 0.001808 -0.995694 124 83 56 255 1
0.016503 -0.009352 0.391160 0.116105 0.006157 -0.993218 126 87 61 255 1
0.017064 -0.009358 0.391417 0.140808 0.011077 -0.989975 135 96 72 255 1
0.017660 -0.009382 0.392428 0.176936 0.019066 -0.984038 128 92 69 255 1
0.018217 -0.009384 0.392524 0.200563 0.021956 -0.979435 117 84 61 255 1
0.018766 -0.009383 0.392460 0.222854 0.028064 -0.974448 120 85 62 255 1
0.019325 -0.009386 0.392604 0.249731 0.032975 -0.967754 122 86 63 255 1
0.019876 -0.009386 0.392588 0.273723 0.038024 -0.961057 125 91 68 255 1
0.020397 -0.009372 0.391994 0.284765 0.039670 -0.957776 128 92 68 255 1
0.020952 -0.009373 0.392059 0.308436 0.046692 -0.950099 127 92 67 255 1
0.021509 -0.009376 0.392171 0.327991 0.049917 -0.943361 121 85 61 255 1
0.022212 -0.009440 0.394851 0.377326 0.059738 -0.924152 111 79 55 255 1
0.022791 -0.009450 0.395269 0.392067 0.060892 -0.917919 108 79 54 255 1
0.023371 -0.009460 0.395670 0.397589 0.055260 -0.915898 108 81 56 255 1
0.023949 -0.009468 0.396039 0.400796 0.047597 -0.914930 108 82 57 255 1
0.024531 -0.009478 0.396440 0.394798 0.040133 -0.917891 109 83 59 255 1
0.025111 -0.009486 0.396793 0.381161 0.028718 -0.924062 111 84 60 255 1
0.025688 -0.009493 0.397082 0.365054 0.026874 -0.930598 114 86 62 255 1
0.026269 -0.009501 0.397419 0.347426 0.016799 -0.937557 116 88 63 255 1
0.026845 -0.009508 0.397676 0.324668 0.009600 -0.945779 117 88 63 255 1
0.027429 -0.009516 0.398045 0.301130 0.008439 -0.953546 118 88 63 255 1
0.028014 -0.009525 0.398398 0.264989 0.001668 -0.964250 118 88 62 255 1
0.028599 -0.009533 0.398735 0.209686 -0.010740 -0.977710 118 88 62 255 1
0.029184 -0.009541 0.399072 0.164375 -0.028589 -0.985984 118 88 62 255 1
0.029764 -0.009547 0.399329 0.113168 -0.043414 -0.992627 119 90 65 255 1
0.030350 -0.009555 0.399650 0.054822 -0.070616 -0.995996 122 96 70 255 1
0.030928 -0.009560 0.399859 0.013446 -0.092105 -0.995659 124 102 77 255 1
0.031505 -0.009564 0.400035 -0.053321 -0.126004 -0.990596 125 106 81 255 1
0.032084 -0.009569 0.400244 -0.089840 -0.171988 -0.980994 127 107 82 255 1
0.032647 -0.009569 0.400244 -0.148647 -0.219870 -0.964137 128 107 81 255 1
0.033196 -0.009565 0.400083 -0.202478 -0.263426 -0.943191 128 105 77 255 1
0.033746 -0.009561 0.399923 -0.247945 -0.315814 -0.915852 128 102 75 255 1
0.034272 -0.009551 0.399506 -0.296106 -0.368459 -0.881226 128 100 74 255 1
0.034772 -0.009534 0.398799 -0.343856 -0.419940 -0.839889 130 102 76 255 1
0.035254 -0.009513 0.397901 -0.383302 -0.469143 -0.795603 130 101 76 255 4
0.035728 -0.009490 0.396954 -0.411481 -0.522273 -0.746937 129 99 74 255 4
0.036195 -0.009466 0.395959 -0.431469 -0.557822 -0.708991 128 98 74 255 4
0.036667 -0.009445 0.395044 -0.440982 -0.599119 -0.668275 126 98 74 255 4
0.037152 -0.009427 0.394290 -0.451036 -0.618454 -0.643492 126 100 75 255 4
0.037636 -0.009409 0.393551 -0.457322 -0.635093 -0.622505 124 100 76 255 4
0.038136 -0.009396 0.393006 -0.470245 -0.638830 -0.608905 125 101 77 255 4
0.038634 -0.009382 0.392444 -0.479154 -0.642624 -0.597868 124 99 76 255 4
0.039139 -0.009371 0.391978 -0.486539 -0.642718 -0.591771 126 100 76 255 4
0.039646 -0.009361 0.391545 -0.487493 -0.643258 -0.590398 126 100 75 255 4
0.040162 -0.009353 0.391208 -0.475960 -0.643114 -0.599889 128 101 76 255 4
0.040678 -0.009345 0.390871 -0.460595 -0.641030 -0.613948 129 101 76 255 4
0.041195 -0.009338 0.390566 -0.437420 -0.638355 -0.633377 129 101 75 255 4
0.041712 -0.009330 0.390261 -0.420947 -0.638146 -0.644650 130 101 75 255 4
0.042222 -0.009322 0.389908 -0.402578 -0.635251 -0.659080 130 101 75 255 4
0.042727 -0.009312 0.389507 -0.382255 -0.631228 -0.674857 132 103 76 255 4
0.043233 -0.009303 0.389138 -0.363584 -0.627278 -0.688716 131 103 76 255 4
0.043745 -0.009296 0.388817 -0.346497 -0.624143 -0.700275 130 103 77 255 4
0.044257 -0.009288 0.388512 -0.328860 -0.620981 -0.711501 131 104 77 255 4
0.044770 -0.009282 0.388223 -0.311181 -0.618756 -0.721324 130 103 77 255 4
0.045284 -0.009275 0.387950 -0.294157 -0.613853 -0.732568 129 102 77 255 4
0.045797 -0.009268 0.387677 -0.278319 -0.611008 -0.741085 129 104 78 255 4
0.046312 -0.009262 0.387420 -0.261981 -0.607295 -0.750039 129 104 78 255 4
0.046827 -0.009257 0.387180 -0.244891 -0.604668 -0.757895 131 105 80 255 4
0.047346 -0.009252 0.386971 -0.226406 -0.602634 -0.765227 132 106 81 255 4
0.047867 -0.009247 0.386778 -0.210009 -0.600736 -0.771370 135 107 82 255 4
0.048387 -0.009242 0.386586 -0.191350 -0.599678 -0.777027 136 108 84 255 4
0.048914 -0.009239 0.386457 -0.171632 -0.597986 -0.782915 137 111 86 255 4
0.049443 -0.009237 0.386345 -0.154091 -0.597361 -0.787030 137 111 87 255 4
0.049966 -0.009233 0.386185 -0.134704 -0.596977 -0.790868 136 112 87 255 4
0.050484 -0.009228 0.385992 -0.114367 -0.594975 -0.795566 138 114 90 255 4
0.051018 -0.009227 0.385928 -0.097083 -0.594951 -0.797878 137 114 89 255 4
0.051559 -0.009226 0.385912 -0.077121 -0.595281 -0.799808 137 114 89 255 4
0.052103 -0.009227 0.385928 -0.058385 -0.598936 -0.798666 137 114 89 255 4
0.052651 -0.009227 0.385960 -0.035199 -0.600078 -0.799167 136 113 87 255 4
0.053204 -0.009229 0.386040 -0.012957 -0.604270 -0.796674 135 111 85 255 4
0.053758 -0.009231 0.386120 0.006753 -0.606513 -0.795045 136 112 85 255 4
0.054315 -0.009234 0.386217 0.026126 -0.609644 -0.792244 136 112 85 255 4
0.054872 -0.009236 0.386313 0.044482 -0.613047 -0.788794 136 112 85 255 4
0.055431 -0.009239 0.386425 0.062381 -0.614810 -0.786205 137 112 85 255 4
0.055991 -0.009241 0.386538 0.079650 -0.617453 -0.782565 137 112 85 255 4
0.056553 -0.009244 0.386666 0.093202 -0.621574 -0.777792 137 112 84 255 4
0.057116 -0.009247 0.386794 0.106293 -0.623697 -0.774405 138 112 85 255 4
0.057682 -0.009251 0.386939 0.118425 -0.625906 -0.770855 138 113 85 255 4
0.058248 -0.009254 0.387083 0.128478 -0.629462 -0.766336 138 113 86 255 4
0.058814 -0.009258 0.387228 0.137626 -0.632563 -0.762183 139 114 86 255 4
0.059381 -0.009261 0.387372 0.144294 -0.635879 -0.758180 138 114 86 255 4
0.059968 -0.009268 0.387645 0.151750 -0.641176 -0.752241 139 114 86 255 4
0.060555 -0.009274 0.387918 0.157235 -0.647192 -0.745935 139 113 86 255 4
0.061146 -0.009281 0.388207 0.159811 -0.651654 -0.741490 140 114 87 255 4
0.061738 -0.009288 0.388496 0.160290 -0.655188 -0.738265 139 114 87 255 4
0.062326 -0.009294 0.388752 0.159514 -0.658501 -0.735481 138 114 87 255 4
0.062904 -0.009299 0.388945 0.155184 -0.661413 -0.733792 137 112 86 255 4
0.063485 -0.009304 0.389154 0.151290 -0.661336 -0.734675 137 113 86 255 4
0.064069 -0.009309 0.389378 0.145980 -0.662987 -0.734261 137 113 87 255 4
0.064654 -0.009315 0.389603 0.139177 -0.664387 -0.734316 137 114 88 255 4
0.065229 -0.009318 0.389764 0.131601 -0.666089 -0.734170 136 112 86 255 4
0.065785 -0.009320 0.389812 0.124530 -0.666658 -0.734887 136 113 87 255 4
